ply
format ascii 1.0
element vertex 1339
property float x
property float y
property float z
property uchar red
property uchar green
property uchar blue
end_header
-0.240259 -1.45639 6.24481 132 86 66
-2.25561 -1.27058 5.50694 115 76 57
3.38966 -1.3493 5.61907 44 26 16
3.73264 -1.47149 6.32188 52 28 12
2.76126 -1.30561 6.04363 115 118 78
2.86893 -1.28029 5.81122 168 134 126
2.35967 -1.26842 6.19116 120 58 34
2.86832 -1.16379 5.3434 122 15 8
2.17967 -1.21168 5.98214 92 57 20
3.04387 -1.12949 5.43716 188 135 109
2.5887 -1.18113 6.12765 66 30 16
2.76339 -1.23245 6.68643 99 69 32
3.57778 -1.10068 5.71175 130 106 66
-1.35096 -1.13503 6.96229 160 146 120
2.27681 -1.07556 5.88398 127 92 74
-1.37031 -1.09332 6.64476 100 64 35
2.79559 -1.02522 5.59302 164 128 113
2.4112 -1.05482 6.08406 152 102 78
2.93518 -1.00336 5.45558 172 84 57
2.27009 -1.11969 6.87668 154 127 104
2.84867 -0.974851 5.49835 166 71 45
-0.887762 -0.910572 6.09749 133 91 66
2.80946 -0.908422 5.42498 91 87 88
3.34793 -0.939015 5.61272 174 98 69
3.45827 -0.939683 5.5924 118 100 86
2.96352 -0.905041 5.56872 28 18 18
3.27022 -0.879367 5.43483 180 122 93
3.60871 -0.914134 5.74982 114 90 62
2.39879 -0.91758 6.23038 150 118 100
2.42659 -0.911944 6.14058 68 35 19
2.2243 -0.910002 6.37798 134 114 92
2.60844 -0.859318 6.44185 158 148 128
3.79142 -0.838702 6.26984 156 118 94
3.34865 -0.71143 5.71011 172 148 133
2.48521 -0.718463 6.50855 78 46 23
2.67686 -0.691665 6.32549 53 34 14
3.2089 -0.619007 5.57178 128 78 58
2.24466 -0.602386 6.39519 122 92 64
-1.65485 -0.447464 5.4643 152 97 70
2.74254 -0.535195 5.73114 164 118 92
2.92144 -0.48623 5.57427 142 116 102
3.44673 -0.497293 5.70326 96 81 60
2.16238 -0.488923 6.62684 66 44 26
2.14484 -0.476534 6.89608 151 139 117
2.21489 -0.473828 6.47411 18 10 6
3.15006 -0.441518 5.85326 132 85 65
2.29949 -0.419517 6.71181 130 102 72
2.77264 -0.419251 5.87369 187 148 120
3.31892 -0.386104 5.99602 120 96 80
2.27201 -0.35551 6.55213 99 62 35
2.76606 -0.346534 5.847 119 89 70
2.63244 -0.328452 6.02053 52 30 20
2.86862 -0.330242 5.74146 184 157 139
2.25855 -0.308287 6.59018 126 100 84
2.90426 -0.316392 5.73735 94 74 61
2.80644 -0.300961 5.89436 118 88 72
2.68181 -0.280515 5.98161 129 106 98
3.4298 -0.298668 5.76898 68 42 30
4.04981 -0.30266 6.61397 134 104 77
2.66161 -0.237383 6.12486 21 15 14
3.475 -0.210362 5.86755 26 18 12
-2.01679 -0.0821606 5.12477 116 31 23
-2.07633 -0.0204674 4.82513 146 58 25
2.8841 -0.0559347 5.90781 175 138 116
-2.22897 0.0431289 4.79964 152 122 81
2.49815 0.0844657 6.11244 178 142 122
2.77978 0.0622541 5.78741 146 114 100
3.70744 0.210734 6.40141 178 162 157
3.70544 0.225487 6.04764 149 104 89
2.9565 0.25897 5.71437 158 115 99
3.48793 0.264777 5.87364 164 130 118
3.65137 0.284541 5.98677 172 148 134
3.35376 0.329376 5.91135 155 120 104
3.40008 0.328438 5.76847 190 160 142
2.19665 0.460788 6.45806 146 122 110
3.48667 0.39965 5.87607 164 131 114
3.70034 0.444849 6.14617 70 52 38
-2.19295 0.565339 6.09906 176 126 101
1.06555 0.412048 5.23365 108 90 82
2.74503 0.467246 5.9746 129 57 52
2.88602 0.439748 5.79141 94 106 94
3.67646 0.480952 6.16292 178 152 138
1.27923 0.467659 5.38226 111 92 78
0.943946 0.672687 5.05641 146 114 109
-2.45311 0.898827 5.19056 148 104 87
2.93668 -2.73596 5.18383 187 136 108
3.07071 -2.60492 5.18848 109 78 41
2.92983 -2.58909 5.22456 175 124 98
2.93082 -2.55796 5.28241 166 117 90
3.0939 -2.53477 5.31534 57 40 27
3.80489 -2.56928 6.00741 108 86 52
2.04593 -2.05065 5.25508 138 113 86
2.17247 -2.01077 5.09799 136 112 90
2.26567 -2.00554 5.20857 94 28 12
2.01341 -2.11356 5.64411 100 70 34
2.77444 -1.82269 4.80058 160 130 118
2.82067 -1.82348 4.80173 216 196 190
3.1703 -1.75727 4.6158 148 115 102
2.87149 -1.82253 5.01685 73 50 42
2.96787 -1.81881 4.97497 68 52 48
3.28532 -1.72176 4.74066 162 140 132
2.13516 -1.83239 5.43446 86 83 70
2.85812 -1.70594 4.84657 100 78 74
3.35372 -1.68929 4.86262 134 100 85
2.11578 -1.74165 5.26481 84 74 62
2.38953 -1.64092 5.00511 136 46 40
2.87726 -1.60552 4.80593 104 86 80
3.4839 -1.64505 4.94924 137 124 116
2.29997 -1.67135 5.21661 126 13 11
2.74964 -1.58537 4.85776 102 78 68
3.31709 -1.56043 4.85268 132 122 112
2.845 -1.54681 4.89848 111 93 84
3.05774 -1.59202 5.10167 170 154 151
3.42772 -1.56604 4.9571 118 116 95
3.46756 -1.56556 4.94969 102 103 90
2.63351 -1.5105 4.88288 147 120 109
3.00047 -1.51066 4.86477 116 100 96
2.77928 -1.54729 5.12747 68 42 34
-0.716879 -1.62563 5.95143 146 74 50
3.47692 -1.50871 5.04155 156 136 124
3.58506 -1.49911 5.93915 22 16 10
2.60143 -1.4962 6.12377 102 49 20
-2.06546 -1.30472 5.51518 46 12 4
2.41988 -1.41575 6.09172 144 97 66
3.66797 -1.44588 6.15372 52 28 12
-1.85662 -1.3007 6.05367 46 12 2
2.76316 -1.29292 5.72274 150 128 113
3.63642 -1.35282 6.16546 136 100 74
2.82746 -1.26007 5.71763 158 130 120
2.7864 -1.17906 5.40166 188 114 92
3.00246 -1.1997 5.50079 145 104 91
2.74239 -1.21852 5.97477 116 116 74
-2.5187 -1.03944 5.84921 131 111 84
2.73748 -1.21633 6.58012 100 70 33
2.23279 -1.09491 5.93781 118 94 82
2.92343 -1.00034 5.42474 173 86 58
2.41196 -1.0476 6.07677 144 94 72
3.40995 -0.993877 5.4171 180 154 129
2.08769 -1.00995 5.93932 148 126 98
2.28259 -1.06001 6.64396 116 86 69
3.15298 -0.960806 5.53223 73 39 28
3.31693 -0.963888 5.47694 176 119 94
-0.772947 -0.905901 6.00926 110 67 38
2.29451 -0.937266 6.32789 158 128 106
2.38124 -0.912476 6.1377 148 116 98
2.62191 -0.929589 6.43172 38 42 34
3.58445 -0.904162 5.85811 177 153 134
2.23659 -0.910394 6.42252 137 116 94
2.27498 -0.88857 6.21949 134 98 74
2.25648 -0.849773 6.21723 78 36 18
2.38511 -0.854729 6.20193 51 18 8
2.56828 -0.851172 6.3577 152 140 118
3.41059 -0.811255 5.72298 114 82 64
-1.30733 -0.667687 5.31766 207 148 110
2.78184 -0.847012 7.1569 138 127 102
3.17272 -0.745067 5.59146 150 88 62
-2.28469 -0.579562 5.90627 108 65 50
3.17355 -0.657588 5.59055 60 24 16
2.35273 -0.644143 6.24366 132 94 72
3.26995 -0.602633 5.67532 188 159 142
2.19551 -0.591104 6.38245 164 132 108
3.13469 -0.578965 5.62948 50 25 16
-2.31198 -0.455104 5.92826 93 50 28
-1.22983 -0.456128 5.35936 104 57 44
2.22794 -0.552466 6.36282 74 50 30
2.78623 -0.542018 5.85798 166 125 100
-2.31728 -0.443864 6.16457 132 108 92
-2.00598 -0.405688 5.76944 65 24 9
2.31044 -0.492642 6.28285 34 15 8
2.35585 -0.480736 6.29534 40 22 12
2.20719 -0.46023 6.46454 19 12 8
2.24632 -0.416279 6.39517 126 98 69
2.73917 -0.420694 5.74024 184 146 118
3.18168 -0.435056 5.96467 132 85 66
2.24885 -0.362313 6.46923 98 62 34
2.60388 -0.311643 5.94331 66 52 46
3.25783 -0.330147 5.96505 16 11 11
-2.1698 -0.207258 4.9255 114 25 7
2.22528 -0.288021 6.6452 58 34 14
2.90918 -0.303854 5.7758 104 84 73
2.65416 -0.279952 5.88037 84 65 58
3.35978 -0.289768 5.76696 59 34 16
-1.94128 -0.178179 4.95003 122 43 35
3.43409 -0.209625 5.96194 33 18 10
3.88589 -0.223505 6.35819 144 94 65
2.52584 -0.177051 6.24528 86 71 52
-1.91925 -0.095292 4.89662 116 28 20
2.65377 -0.14616 6.14951 99 82 66
2.87261 -0.040123 6.13087 108 64 38
3.74838 0.0621207 6.0736 164 143 134
3.00029 0.228415 5.83312 112 64 40
3.36257 0.209617 5.71709 164 112 99
3.46701 0.257765 5.91161 162 92 70
3.62387 0.266967 5.93311 168 146 132
3.5788 0.293352 5.95608 46 28 22
3.46139 0.353867 5.97528 189 160 140
3.36424 0.395 5.81982 104 75 66
3.44681 0.408546 5.79372 178 148 126
3.32554 0.498478 5.8008 197 173 157
2.81167 0.5413 5.94425 192 144 100
3.27352 0.620568 5.94552 143 114 105
0.688636 0.62184 5.0909 132 45 38
2.94271 -2.60251 5.26712 161 108 84
2.89787 -2.00373 4.85095 27 16 7
2.01504 -2.17161 5.60096 95 65 28
3.21252 -1.85579 4.67873 94 69 50
2.10936 -1.90902 5.0227 100 63 36
2.84389 -1.84998 4.90835 182 162 157
2.66212 -1.75184 4.68255 167 136 128
2.78531 -1.75096 4.74092 80 56 48
-0.809764 -1.87223 6.08673 52 26 7
-0.945072 -1.95174 6.55521 103 93 54
3.34118 -1.62966 4.85682 160 140 134
2.27722 -1.64854 5.09016 123 12 10
-2.15942 -1.60729 5.39821 115 77 54
-0.332955 -1.77925 6.03155 116 74 57
-1.91739 -1.69894 5.95747 35 20 4
-2.20035 -1.58064 5.56507 86 49 34
3.20657 -1.55382 4.93522 147 82 77
2.63504 -1.51343 4.89909 160 130 120
3.01689 -1.522 4.91644 116 101 96
2.58765 -1.44525 5.37736 166 152 108
3.37319 -1.5228 6.1866 68 35 14
2.61371 -1.50843 6.20309 100 47 19
2.59046 -1.41348 6.19284 92 44 17
2.87541 -1.28784 5.78779 170 138 128
2.85641 -1.24089 5.46577 138 71 58
3.62984 -1.35886 6.14609 129 93 66
-1.77664 -1.2076 5.91874 48 16 8
3.15731 -1.28067 5.79793 153 136 125
2.62092 -1.27185 6.3136 70 28 10
-1.66309 -1.13379 5.97735 92 55 24
2.72527 -1.12321 5.31089 128 31 20
2.77372 -1.14962 6.0323 123 108 82
3.52544 -1.08982 5.61806 145 126 84
-1.392 -1.14898 7.06268 162 150 125
3.14578 -1.06118 5.5424 98 52 32
-1.36756 -1.07985 6.65163 88 54 22
3.41292 -0.993124 5.43214 177 152 127
-1.4274 -0.938187 5.94987 126 89 62
2.44904 -0.985453 6.24267 134 90 67
2.77818 -0.933341 5.61165 116 93 86
3.07001 -0.958073 5.80136 22 9 6
2.77847 -0.855644 5.61338 160 131 120
2.35892 -0.859774 6.11266 48 12 2
2.78486 -0.76743 5.62632 108 86 78
3.0937 -0.774467 5.62789 94 58 46
3.18769 -0.758746 5.64028 143 84 59
3.20256 -0.732024 5.47518 179 140 120
2.7762 -0.788033 6.91327 51 34 14
3.11438 -0.708066 5.61547 48 20 16
3.31299 -0.720619 5.64911 174 148 133
-1.29469 -0.567247 5.55395 75 28 13
-2.39246 -0.55057 5.90388 162 142 122
2.34008 -0.644678 6.24146 136 100 78
3.49579 -0.659621 6.08182 110 74 52
-2.43529 -0.522965 6.49001 42 12 8
3.192 -0.599351 5.84022 64 40 39
3.38428 -0.616046 6.07439 175 142 123
-1.25155 -0.460894 5.50586 113 66 51
2.18624 -0.568558 6.66778 122 102 82
2.20513 -0.555309 6.2369 110 82 60
3.18694 -0.54719 5.63108 171 142 121
2.14084 -0.510376 6.35853 148 125 103
2.33787 -0.497362 6.44057 45 24 16
-1.18561 -0.325799 4.59058 160 100 80
2.28874 -0.421451 6.63297 120 94 66
2.54149 -0.440498 6.94594 132 104 82
-2.1191 -0.259291 5.11597 112 54 40
2.12506 -0.358326 6.56835 145 90 60
2.28176 -0.360773 6.72426 94 60 34
3.27642 -0.348543 6.07262 22 12 8
2.67888 -0.315958 5.90284 78 48 38
2.06677 -0.281053 6.4598 105 70 35
3.08003 -0.295053 6.36797 128 108 96
3.48276 -0.309337 5.92667 177 150 134
2.96393 -0.227962 5.98812 86 70 62
-2.05494 -0.131087 5.19093 114 26 18
2.08101 -0.165668 6.37019 164 139 122
-1.81967 -0.103443 4.66429 120 16 12
0.982346 0.0675311 5.5701 132 37 27
2.51017 0.186305 6.01334 174 146 136
3.69301 0.232695 6.01705 140 92 74
3.48351 0.248264 5.86491 165 144 134
3.60213 0.327749 6.04812 30 15 12
3.63228 0.307449 5.86695 120 90 75
3.38209 0.40492 5.87624 83 56 49
-2.37765 0.569374 6.32348 142 94 68
3.65752 0.434295 6.0339 114 94 80
2.47496 0.503747 6.28488 166 138 129
2.7063 0.472841 5.74767 137 22 26
1.26997 0.582983 5.55948 88 69 60
0.652327 1.04016 5.57016 46 16 14
0.458983 1.03518 5.3835 76 51 50
2.83393 -2.48926 5.18979 107 25 12
2.91461 -2.02339 4.88259 18 11 6
2.05645 -2.04363 5.25117 148 122 100
2.26569 -2.00712 5.17592 97 12 7
2.59338 -1.88202 4.78726 122 8 7
3.11631 -1.89565 4.81657 18 10 7
2.11806 -1.9262 5.07976 103 62 35
2.32331 -1.93604 5.10276 114 7 8
2.80855 -1.81981 4.79106 222 203 199
2.88147 -1.77352 4.60802 135 111 105
2.57262 -1.75662 4.63804 113 68 40
3.24275 -1.80776 4.81322 155 126 114
2.64538 -1.74121 4.66493 168 140 131
2.95381 -1.82448 4.98678 66 50 46
2.38223 -1.79177 4.9749 160 128 118
2.08059 -1.7699 5.1172 102 92 78
2.34373 -1.74458 4.98871 97 47 22
2.80335 -1.68245 4.68511 131 110 104
-0.781072 -1.96303 6.38395 175 116 89
-0.447038 -1.71824 6.191 140 91 70
3.37102 -1.47676 5.00932 160 142 132
3.33253 -1.50964 6.04968 80 44 22
3.66673 -1.51339 6.02284 150 144 97
-1.70997 -1.34832 5.77046 146 128 88
2.38112 -1.45735 6.1556 151 138 94
3.6269 -1.43719 6.05036 46 24 9
3.08271 -1.34068 5.83644 143 118 106
2.41592 -1.38836 6.43247 146 140 92
2.70418 -1.23875 5.34793 164 134 122
3.17397 -1.31527 5.81226 154 138 126
2.85172 -1.23408 5.43651 144 67 56
3.19829 -1.32111 6.06496 155 134 128
2.30393 -1.22776 5.89422 122 74 46
3.22485 -1.18329 5.80221 150 100 78
2.90046 -1.11026 5.43116 178 90 64
-1.24234 -1.11213 6.54102 154 142 114
2.35107 -1.20709 6.79432 167 138 120
2.73714 -1.03331 5.44832 163 128 115
2.92982 -1.01439 5.47256 162 68 44
3.26322 -1.03695 5.84271 38 16 8
2.22717 -1.08607 6.99135 125 111 78
2.33209 -0.947221 6.38163 162 130 116
2.27626 -0.803221 6.36448 148 106 82
2.38989 -0.808067 6.38256 154 122 102
3.28894 -0.742643 5.65756 178 146 127
3.37407 -0.648287 5.7055 98 68 46
-2.29891 -0.456489 5.9185 96 54 30
2.17185 -0.547264 6.13919 117 94 78
-2.42986 -0.446758 6.3898 155 134 113
-2.05652 -0.440232 5.81324 66 24 12
-1.56149 -0.361726 5.63496 168 106 86
2.73863 -0.415854 5.69443 194 159 132
3.29685 -0.353327 6.15806 24 12 6
-1.61595 -0.234766 5.51491 172 122 96
2.62047 -0.309304 5.99984 30 22 20
2.85078 -0.317628 6.17097 116 85 69
2.21897 -0.277948 6.22608 145 114 96
2.77547 -0.259605 6.18839 155 124 108
2.77422 0.0437842 5.8941 152 123 112
3.05495 0.316312 6.12139 132 89 68
3.00308 0.288307 5.80175 157 116 99
2.65085 0.371544 6.34993 234 218 212
3.56168 0.312225 5.9406 29 10 7
2.70913 0.391099 5.99888 184 154 146
3.48363 0.410764 6.13984 180 152 138
3.70118 0.436596 6.15923 174 150 134
1.26965 0.515474 5.55618 143 124 110
3.3554 0.552027 5.99277 48 32 26
3.39331 0.693239 6.25566 172 149 140
2.96535 -2.74821 5.24629 248 206 183
3.11699 -2.64805 5.31952 156 138 91
2.95611 -2.61557 5.32418 214 172 148
2.83828 -2.58062 5.3959 156 134 99
2.84446 -2.53366 5.30112 142 87 64
3.00912 -2.5004 5.23075 38 18 6
3.09951 -2.50102 5.22383 32 14 2
2.69182 -2.52068 5.63681 120 103 67
3.89937 -1.94244 5.26161 110 87 57
3.52648 -1.77362 4.78116 156 130 115
2.14112 -1.80994 5.27965 108 92 79
2.85824 -1.66026 4.71752 124 106 98
2.33134 -1.60532 5.11007 46 6 2
2.3434 -1.58615 5.01943 54 16 10
-1.79693 -1.60677 5.52501 118 82 64
-1.88229 -1.64064 5.74035 118 86 64
3.40591 -1.54794 4.89478 156 142 124
-1.87011 -1.6287 5.79924 126 90 72
2.73602 -1.48433 4.8779 152 127 119
3.51273 -1.49049 4.99639 177 152 138
3.59409 -1.49886 5.07714 146 122 96
-2.1096 -1.45364 5.47659 68 40 30
-1.77483 -1.28512 5.8475 46 10 1
3.06632 -1.33464 5.70711 114 98 89
2.6057 -1.40484 6.2524 157 128 94
2.51192 -1.18501 6.20624 120 46 36
2.64187 -1.19337 6.27287 64 33 4
3.34324 -0.968941 5.5516 187 136 112
2.58694 -0.980704 6.29478 80 99 84
3.29573 -0.854401 5.58163 142 73 34
3.26935 -0.773833 5.56645 147 103 82
3.17476 -0.731065 5.63119 91 38 18
2.20301 -0.559825 6.35682 137 112 98
2.36235 -0.542493 6.31878 78 46 26
-1.18218 -0.401519 5.43451 62 15 6
3.09081 -0.485534 5.66627 90 40 24
2.05574 -0.416354 6.6685 117 90 64
2.93444 -0.31051 5.80098 41 24 15
2.9364 -0.275246 5.73874 172 151 136
2.6607 -0.258234 5.90849 160 134 118
3.42278 -0.256029 5.90862 171 148 128
3.50582 -0.194648 5.89941 38 25 12
3.84047 0.0323891 6.20541 149 122 106
1.01451 0.0707898 5.5577 134 93 72
2.48994 0.0931949 6.1345 174 128 106
-2.34495 0.148589 4.72054 174 134 112
3.84388 0.123664 6.1777 132 105 94
2.98112 0.251554 5.75258 166 124 108
2.27518 0.38043 6.16979 116 105 96
3.70231 0.473003 6.19928 191 166 150
1.09753 0.49418 5.29324 149 132 120
0.77355 0.602982 5.08916 222 202 200
0.729805 0.652224 5.12857 168 148 142
-2.42295 0.809982 5.10135 100 36 20
-2.43178 1.33867 4.8766 100 34 30
3.12118 -2.65419 5.34108 118 92 50
2.9445 -2.60072 5.27495 185 136 110
3.09781 -2.50506 5.24086 64 44 27
3.85816 -2.58455 6.0677 112 92 58
2.76599 -1.78393 4.72661 163 141 136
3.53213 -1.74067 4.83807 118 78 52
3.34284 -1.69096 4.74211 150 107 87
3.32782 -1.55462 4.87819 102 102 88
-1.84616 -1.6198 5.75473 115 78 58
3.4904 -1.55364 4.99342 100 100 87
3.41595 -1.52727 4.92645 102 98 80
3.55459 -1.53077 5.03589 134 104 87
3.38255 -1.49268 4.96916 148 133 122
3.50881 -1.48969 4.98439 164 141 128
-2.29539 -1.43887 5.422 102 64 46
-1.77955 -1.39762 5.65815 90 28 8
-0.688954 -1.45951 6.26637 64 24 2
2.80157 -1.30025 5.89367 139 122 107
2.66115 -1.26296 6.44572 140 123 88
2.52039 -1.19507 6.24087 126 44 34
-2.39859 -1.01546 5.86282 110 63 49
-1.3631 -1.12833 6.98976 156 140 112
2.90625 -0.976286 5.53636 169 76 50
2.21254 -0.882795 6.2709 99 74 52
3.17993 -0.839803 5.66311 75 23 6
2.80531 -0.732915 5.55841 26 15 15
2.2063 -0.571632 6.41078 155 128 111
2.15404 -0.557139 6.38148 55 32 16
2.23403 -0.488141 6.4957 35 22 12
-2.06455 -0.268269 5.02015 146 98 82
2.86963 -0.169377 5.95453 106 74 54
0.987907 0.0471065 5.61629 166 130 108
3.73593 0.220555 6.09835 137 89 72
2.93096 0.249482 5.90596 171 138 122
3.51489 0.318677 5.86612 32 13 8
3.51549 0.345237 5.8672 68 48 44
1.05377 0.376568 5.23062 141 104 92
1.23321 0.567396 5.42735 84 70 62
-2.43997 0.643756 4.84601 132 76 45
2.95074 -2.73428 5.19435 236 194 171
3.12471 -2.66042 5.33481 130 107 64
2.94921 -2.59977 5.27462 192 147 122
2.83447 -2.52634 5.2764 120 79 52
3.1345 -2.50186 5.25361 170 138 110
2.22779 -2.66479 6.03321 106 89 52
2.06149 -2.30202 5.70323 108 72 36
2.02811 -2.09146 5.6094 97 74 45
3.10845 -1.8759 4.77297 25 14 8
2.90528 -1.7571 4.54392 186 162 155
3.32796 -1.66472 4.77363 112 76 59
2.75067 -1.63659 4.84902 130 103 96
-0.924163 -1.89925 6.45894 66 46 16
3.63962 -1.60442 5.0226 128 80 67
-2.19373 -1.54627 5.34251 141 96 73
3.60851 -1.51721 5.07515 152 134 112
2.60856 -1.41585 6.26386 117 84 50
-2.0546 -1.18332 5.61482 142 84 68
2.38279 -1.32807 6.13265 143 132 89
3.6949 -1.3552 6.33621 148 122 96
2.91491 -1.17712 5.42625 115 20 10
-1.68947 -1.12811 5.84892 128 88 62
2.17882 -1.08452 6.22682 76 44 24
2.70926 -0.754547 6.78961 158 146 126
2.22982 -0.489261 6.46083 39 24 14
2.36751 -0.466147 6.42279 62 40 30
2.7354 -0.42459 5.65356 196 162 137
2.15987 -0.350318 6.62689 151 95 66
2.60074 -0.332948 5.86359 88 62 46
4.01989 -0.296699 6.51453 148 124 96
-2.29543 -0.15832 4.78471 170 145 114
3.43218 -0.254805 5.91548 170 145 128
3.00104 -0.229659 5.85961 30 20 14
-2.23793 0.0433929 4.80704 150 118 76
3.82265 0.0321723 6.15696 149 122 106
3.81261 0.116958 6.08525 137 107 96
3.40915 0.219191 5.81796 150 91 70
3.63314 0.292455 5.91766 177 154 138
-2.20217 0.574796 6.16581 181 131 107
1.31396 0.541165 5.52368 156 140 134
0.778448 0.58739 5.01786 171 150 148
2.93113 -2.70976 5.12591 214 168 142
3.00326 -2.58054 5.23383 186 136 112
4.03879 -2.35549 5.61028 154 144 93
3.98524 -2.36116 5.65249 106 75 44
3.96455 -2.29537 5.53084 158 136 108
3.91286 -2.13733 5.3505 156 130 106
2.02966 -2.10488 5.52533 141 118 94
3.79101 -1.92789 5.0766 149 128 103
2.92257 -1.78834 4.73003 198 178 174
2.15033 -1.82986 5.43434 91 84 72
-0.840713 -1.92648 6.18361 144 136 90
2.75839 -1.64049 4.88569 105 78 69
3.19431 -1.53901 4.88115 124 35 28
3.33896 -1.53402 4.91768 150 136 126
3.57249 -1.52985 5.07489 122 91 72
-2.31716 -1.36788 5.52808 138 94 74
-2.10198 -1.31657 5.60434 54 13 4
3.68358 -1.45241 6.18553 57 30 10
3.6989 -1.44218 6.13046 126 82 45
2.85851 -1.23068 5.39109 118 40 30
3.6774 -1.35465 6.26707 152 129 98
2.94891 -1.22623 5.52514 156 108 92
2.8666 -1.21035 5.74976 158 68 54
2.17904 -1.21136 5.98331 93 58 20
2.61711 -1.1914 6.22496 66 34 12
-2.53545 -1.03921 5.86005 157 140 114
-2.39162 -0.832788 5.75546 176 118 82
3.06123 -0.841435 5.53131 50 20 8
3.3625 -0.81269 5.55023 127 86 66
2.23676 -0.793145 6.31659 112 78 52
2.13705 -0.463062 6.79417 152 137 114
3.34805 -0.384075 5.89074 38 15 8
-2.05879 -0.267759 5.01227 148 104 88
2.07923 -0.360788 6.60263 142 98 72
2.62447 -0.238375 5.96962 22 17 14
2.97937 -0.23749 5.82604 26 18 17
2.92911 -0.221202 5.93625 35 17 6
-2.68336 0.195862 6.74604 102 74 43
3.36787 0.267836 5.83503 135 107 90
3.58828 0.286216 5.92636 52 30 24
0.773517 0.59817 5.09321 156 136 134
0.95105 0.669997 5.02626 150 108 105
2.94523 -2.74073 5.21555 187 137 107
3.11455 -2.64082 5.34414 105 76 40
2.94467 -2.56972 5.32832 176 128 96
2.8437 -2.50934 5.23956 112 34 18
3.00083 -2.48764 5.21086 56 32 16
3.16063 -2.39536 5.2039 98 83 69
3.96004 -2.35262 5.60287 134 102 76
3.91009 -2.14508 5.37931 155 131 106
2.89434 -1.72183 4.82413 111 94 88
3.72555 -1.60253 5.15965 70 36 25
2.91958 -1.51529 4.85732 88 72 66
-2.27281 -1.48083 5.52275 149 104 80
2.62067 -1.42994 6.32991 94 48 20
2.80799 -1.32194 5.92348 140 123 108
2.38827 -1.33507 6.19479 137 132 87
2.86003 -1.22912 5.41117 116 31 22
3.67999 -1.36375 6.3076 130 93 72
3.10834 -1.24034 5.72836 144 115 104
-2.07412 -1.10451 5.88298 174 114 87
2.77895 -1.15231 6.02814 106 98 80
3.11532 -1.05815 5.43342 94 52 30
2.43193 -0.981842 6.23514 158 120 98
2.7678 -0.916132 5.57717 102 78 68
3.25676 -0.598044 5.70754 173 140 120
-2.20578 -0.479259 5.95199 38 11 5
2.19998 -0.576153 6.3887 158 130 110
2.1814 -0.562012 6.52542 70 48 32
3.11625 -0.490948 5.76313 105 51 36
3.39123 -0.444776 6.13243 59 30 16
2.85137 -0.303965 5.797 184 157 139
2.97218 -0.2624 6.02969 166 142 124
2.78317 0.170425 5.64615 169 126 108
2.92156 0.191512 5.78176 111 66 45
3.43903 0.410295 5.90042 50 20 12
-2.20459 0.667088 6.05188 170 120 92
1.26736 0.552008 5.39793 96 75 68
1.01497 0.907037 5.28051 152 28 26
-2.23291 1.23331 5.10726 112 22 18
3.02753 -2.74835 5.2294 172 121 94
3.0213 -2.62909 5.33499 140 88 62
3.00748 -2.48152 5.20085 28 14 4
3.15578 -2.3948 5.18975 52 39 27
3.97665 -2.3762 5.66778 150 120 98
3.91548 -2.15952 5.39564 156 133 106
3.90277 -1.95723 5.2662 119 89 64
3.02841 -1.83215 4.90026 153 130 124
3.05409 -1.76774 4.6456 108 67 38
3.56133 -1.79657 4.85162 152 127 110
2.91587 -1.71198 4.68634 186 168 164
-0.447214 -1.94207 6.01389 104 66 48
3.65822 -1.65623 4.92132 158 106 76
-1.89641 -1.64857 5.57145 74 48 30
3.72563 -1.60565 5.16668 72 36 25
-2.21394 -1.53311 5.452 140 97 72
-1.8821 -1.62195 5.85652 146 95 72
-1.92498 -1.40243 5.52426 76 28 14
-1.78709 -1.40459 5.62349 106 42 22
-2.24671 -1.26632 5.47532 118 80 58
2.40248 -1.35979 6.36661 135 134 88
2.38688 -1.00975 6.0602 156 117 98
2.76902 -0.767811 5.73152 164 134 121
-2.3931 -0.512083 5.99593 95 65 45
-2.48428 -0.48283 6.21323 125 98 77
3.22001 -0.549515 5.77154 168 138 120
2.0843 -0.285768 6.6188 105 70 36
2.62176 -0.244056 5.97442 22 17 14
-2.06427 -0.0196394 4.81523 134 17 11
3.12562 0.460754 5.86314 138 66 59
1.06468 0.606313 5.37737 150 125 113
1.28881 0.615653 5.47284 120 100 89
3.03979 -2.66703 5.32233 90 41 16
3.11954 -2.63659 5.32698 139 123 78
2.07867 -2.13251 5.63076 126 102 76
3.03625 -1.75669 4.60248 102 62 30
2.36057 -1.7663 4.88858 150 116 103
-0.877505 -1.80682 6.31025 66 41 18
-2.32281 -1.45937 5.52113 51 20 10
-2.26341 -1.3565 5.46727 144 102 82
2.74616 -1.33284 5.95508 83 85 56
-2.14843 -1.15064 5.86976 28 7 6
2.33191 -1.22423 6.02237 124 68 48
2.28822 -0.903379 6.23174 148 113 92
3.36588 -0.797898 5.59309 122 84 66
3.18233 -0.670077 5.63363 60 24 18
-1.27314 -0.497063 5.35841 192 133 112
2.61138 -0.624806 6.72408 120 108 78
-2.24157 -0.453472 5.78295 94 50 26
-2.09038 -0.257149 4.85098 160 128 104
2.75548 -0.33771 5.79505 124 92 76
-2.02753 -0.18211 5.12869 118 45 34
2.63328 -0.263033 6.05416 26 18 14
2.65082 -0.266182 5.86346 136 116 107
3.07374 -0.214816 5.87203 137 96 68
2.60454 0.479263 5.91219 111 58 56
1.27919 0.495843 5.46902 114 92 78
1.06551 0.614355 5.42447 148 126 114
-2.23089 -1.63942 5.58608 136 90 64
2.87635 -1.52357 4.83362 85 72 66
2.51992 -1.7229 6.08274 138 101 81
3.47057 -1.51592 4.98092 152 132 124
-2.23459 -1.47864 5.45465 156 108 86
-2.32073 -1.3707 5.54125 134 94 76
2.57817 -1.48076 6.09051 100 41 17
2.57471 -1.2385 6.06802 117 80 54
-1.4457 -1.02612 6.53907 136 92 66
-2.5191 -0.928204 6.00865 36 9 2
-1.24861 -0.673695 5.17202 208 154 112
-2.16589 -0.528867 5.88726 44 12 9
2.98762 -0.627864 5.71009 47 20 16
-1.30734 -0.501884 5.44574 186 128 104
2.29824 -0.605066 6.37564 168 133 110
3.46559 -0.510838 5.89869 114 98 77
2.89516 -0.239873 5.71046 98 80 70
-1.88816 -0.113398 4.83428 118 19 13
3.9109 -0.146237 6.34338 110 68 38
2.47755 0.156644 5.93767 178 148 136
2.5751 0.278342 6.22468 144 102 86
3.35797 0.301804 5.73896 186 152 132
2.86577 0.436143 5.76208 88 104 92
2.86863 0.538258 5.76869 160 80 59
0.761917 0.509395 5.01135 96 76 60
3.19283 -2.47417 5.33041 170 138 120
2.57299 -2.78103 6.58965 110 92 68
3.67718 -1.98455 5.22139 140 109 80
3.36487 -1.87168 4.88258 98 70 52
2.91545 -1.72872 4.70245 158 138 132
3.83381 -1.8613 5.18271 108 100 68
3.80921 -1.8472 5.15184 152 139 118
2.80305 -1.70455 4.73237 87 64 58
3.87277 -1.73909 5.40987 168 127 93
-0.893616 -1.85931 6.50895 155 104 79
2.75292 -1.5671 4.84467 84 64 57
3.75409 -1.64401 5.14449 53 28 11
3.19157 -1.54905 4.85664 129 52 44
3.67555 -1.58924 5.09029 139 96 82
-1.87562 -1.65682 6.01559 85 56 18
2.7057 -1.513 4.87547 145 124 116
2.76174 -1.48497 4.8216 181 160 152
2.80431 -1.37774 6.0506 120 113 91
3.0778 -1.3223 5.69539 106 94 84
3.05091 -1.2995 5.7222 96 76 65
2.62118 -1.36498 6.29244 142 120 84
2.34587 -1.29463 5.9732 150 133 92
2.92111 -1.24159 5.4985 120 62 52
2.75289 -1.24274 6.58846 114 102 56
2.33608 -1.14895 5.95214 119 68 47
3.57058 -1.20125 6.27869 116 92 90
3.0947 -1.05342 5.33282 34 12 4
2.42263 -1.08241 6.13557 142 92 68
3.39661 -1.07618 5.94697 44 19 14
3.00729 -1.01008 5.54853 72 18 7
3.01079 -0.967188 5.58133 100 51 34
2.20829 -0.980864 5.98771 68 35 14
2.24726 -0.927345 6.23781 141 106 82
2.60006 -0.897707 6.39816 32 30 20
2.82252 -0.841128 6.84135 148 134 108
2.78773 -0.75409 5.64693 138 114 102
2.81084 -0.792207 6.70541 50 39 20
2.84947 -0.775672 6.84963 66 48 28
2.20729 -0.71434 6.36043 200 170 146
-2.06249 -0.526187 5.76167 62 26 17
2.12928 -0.499393 6.39859 62 40 20
2.25861 -0.348608 6.66181 118 89 66
2.75712 -0.328523 5.97719 152 124 105
3.38592 -0.241725 5.77838 139 118 106
3.52187 -0.231229 5.93078 60 46 31
3.8097 -0.0974601 6.31309 44 17 2
0.991863 0.0445427 5.48865 157 116 98
2.82963 0.180419 5.7899 203 162 144
3.39508 0.261642 5.77856 152 82 62
3.66013 0.331375 5.95935 106 80 65
1.05425 0.382109 5.25884 156 132 120
1.21138 0.508831 5.41588 97 80 67
0.699131 0.606313 5.00689 185 144 134
0.786859 0.6398 5.0184 90 74 66
3.60531 -2.50361 5.80205 108 89 56
2.073 -2.21968 5.53192 147 126 105
2.18674 -1.98402 5.08663 134 106 76
3.78336 -1.92955 5.0399 138 110 83
2.97476 -1.79215 4.67195 201 171 156
2.94863 -1.76897 4.93773 96 80 78
3.79416 -1.83659 5.14041 150 138 120
2.86378 -1.68373 4.7047 142 123 120
-0.852668 -1.98192 6.28704 104 90 53
3.68677 -1.71923 5.03646 100 33 26
3.76225 -1.72808 5.11979 142 114 88
2.73053 -1.5933 4.73423 164 140 133
2.93973 -1.58294 4.84987 118 102 98
-0.740655 -1.73684 5.94731 88 38 19
2.91246 -1.56718 4.84967 135 123 119
3.02466 -1.56772 4.86172 118 100 96
3.75071 -1.64145 5.14558 55 26 12
-1.85595 -1.63709 5.67216 126 93 75
3.41474 -1.55828 4.92501 132 125 108
-1.76356 -1.60667 5.70341 76 48 12
-0.0461705 -1.55271 6.26178 94 84 38
2.92061 -1.25085 5.51577 131 83 72
2.83227 -1.28075 5.85476 101 87 74
2.78631 -1.11089 5.34282 130 20 14
3.55305 -1.19786 6.23341 97 72 70
2.20309 -1.03492 6.00455 156 126 110
2.5598 -1.06036 6.28121 8 14 4
3.42169 -0.935405 5.5394 135 109 94
2.7858 -0.891526 5.57928 39 26 18
2.48114 -0.912445 6.14048 28 6 2
3.74103 -0.811454 6.27508 160 117 91
2.86556 -0.768371 5.99049 164 130 112
2.76648 -0.773506 6.88523 30 14 2
-2.01981 -0.513211 5.69077 118 77 64
2.73112 -0.582682 5.70581 124 71 51
-2.09661 -0.4834 5.89486 68 24 11
2.40874 -0.577002 6.53877 128 94 74
2.30077 -0.509108 6.31977 46 17 6
3.25324 -0.380641 6.08882 63 35 22
2.9366 -0.27949 5.75249 166 145 132
4.02491 -0.293251 6.55121 134 106 80
2.06479 -0.184152 6.55959 158 124 102
3.36268 0.234463 5.73516 194 152 132
1.07494 0.387314 5.16333 118 102 90
-2.1993 0.457407 4.4274 60 22 26
3.44504 0.820272 6.73545 192 171 165
2.83423 -2.56747 5.27915 130 108 66
2.99429 -1.80136 4.71645 184 154 138
3.03106 -1.75113 4.57302 104 64 34
2.81591 -1.78739 4.8348 80 59 50
2.20821 -1.72307 5.1901 132 104 93
2.84077 -1.59212 4.75264 104 88 84
3.50443 -1.56493 5.03107 102 98 85
2.96492 -1.53187 4.95412 99 81 77
2.46843 -1.4649 5.14188 171 137 123
2.77518 -1.28917 5.78093 144 126 112
2.9219 -1.2479 5.50909 125 72 61
3.1924 -1.27371 5.82937 157 134 124
3.20211 -1.16413 5.74482 174 123 104
2.62492 -1.18897 6.22646 65 37 10
2.20402 -1.03482 5.95029 165 135 118
3.03916 -0.970487 5.44866 134 84 58
3.17071 -0.948281 5.56693 34 12 4
3.35083 -0.937054 5.59761 139 74 41
3.3072 -0.904219 5.51498 184 120 90
2.76458 -0.880901 5.4993 46 31 22
2.53093 -0.784096 6.51426 141 122 98
2.52516 -0.747331 6.59462 82 56 30
2.63402 -0.650193 6.91391 124 107 78
-2.20219 -0.40217 6.10347 68 29 12
3.17725 -0.40561 5.69458 32 15 10
2.66931 -0.342861 6.00212 164 111 88
3.8733 -0.269229 6.37962 73 36 12
3.46634 -0.256964 5.84121 176 152 135
2.62638 -0.229074 5.9978 24 16 12
3.39173 -0.233734 5.85951 48 26 12
3.50117 -0.222779 5.87463 42 30 18
3.39812 -0.20358 5.84806 34 20 12
2.06048 -0.0161597 6.89632 106 92 70
3.74186 -0.0645797 6.24453 62 35 12
1.05428 0.380551 5.27176 156 132 118
3.32671 0.583812 5.92227 181 157 148
1.06315 0.6073 5.40884 149 121 112
0.903165 0.626104 4.91809 153 138 131
2.09621 -2.26762 5.68071 154 135 113
2.9162 -2.0004 4.9124 20 11 4
2.95406 -1.77084 4.70499 198 178 172
3.01701 -1.63594 4.91421 204 188 186
2.86402 -1.5352 4.64444 120 103 100
2.24057 -1.6387 5.28575 119 82 64
3.64111 -1.60807 5.03254 128 76 66
3.61386 -1.52649 5.08156 151 134 114
3.20062 -1.27593 5.87141 158 137 126
2.88897 -1.14813 5.10826 142 106 92
3.1184 -1.1079 5.37571 112 76 53
2.65602 -1.20469 6.49507 61 16 10
2.78301 -1.03169 5.48239 170 119 102
2.75756 -0.935838 5.50641 68 49 41
2.42473 -0.971086 6.16917 161 120 101
2.28189 -0.950302 6.28354 157 126 102
2.57558 -0.856244 6.2548 158 152 130
2.73007 -0.734888 5.52953 164 132 114
2.76586 -0.775406 6.85957 34 17 5
2.83225 -0.632228 5.71121 182 154 138
-2.0554 -0.527729 5.7287 40 10 8
2.20423 -0.572728 6.34153 154 124 99
2.27312 -0.545244 6.4227 66 40 14
-2.03554 -0.412128 5.84944 67 26 12
3.12992 -0.486036 5.79274 77 32 16
3.13324 -0.442271 5.77113 128 82 60
2.66947 -0.279033 5.90392 167 138 122
-2.09506 -0.0113115 4.86681 132 36 16
3.76945 -0.062948 6.32445 62 35 12
3.79748 0.0431349 6.10756 157 132 116
2.57757 0.268745 5.91081 135 92 69
1.3305 0.516024 5.59937 104 90 76
-2.19584 0.808207 4.68411 151 100 87
-2.23491 0.859167 4.6852 128 60 32
2.19909 -2.02307 5.17739 135 113 86
2.24839 -1.85937 5.16071 122 80 56
2.83328 -1.76388 4.90097 146 124 115
3.34858 -1.64996 4.7213 118 79 58
-0.822584 -1.85643 6.13375 56 26 13
-1.02846 -1.9961 7.2137 124 73 50
-1.87265 -1.66805 5.94487 63 42 14
2.99715 -1.5085 4.85463 117 101 97
2.39369 -1.42987 6.21623 126 115 72
2.81623 -1.38196 6.22585 114 115 74
3.18393 -1.16147 5.70501 174 121 102
3.40393 -1.1012 5.6436 120 90 74
2.18677 -0.99262 5.94124 62 30 11
3.13187 -0.947083 5.47307 72 38 22
2.24112 -0.934921 6.13086 152 120 98
3.46053 -0.834713 5.86067 137 104 82
2.82201 -0.797754 6.83365 70 54 30
2.61949 -0.758501 6.90411 160 148 124
2.70263 -0.756143 6.82248 160 148 124
-1.97897 -0.516863 5.5475 70 40 35
2.34961 -0.579058 6.345 158 124 104
-2.25262 -0.404622 6.22684 71 32 14
-1.17849 -0.396758 5.5448 136 96 80
-2.10497 -0.377731 6.01199 166 128 104
-1.9924 -0.262146 4.86054 108 44 31
2.77731 -0.346028 6.1061 158 124 104
0.988454 0.0574578 5.45023 124 46 32
3.36142 0.217504 5.70186 158 98 78
3.55938 0.277739 5.86705 82 58 54
3.57055 0.31047 5.89596 44 22 18
3.64577 0.308508 5.89912 107 74 59
1.25907 0.613873 5.64125 120 104 94
0.746596 0.603338 5.38853 120 85 80
2.23667 -2.72866 6.23612 131 114 68
2.90723 -2.0025 4.86188 12 11 6
3.18138 -1.93008 4.97359 36 26 19
3.02252 -1.66152 5.00002 194 176 176
3.31377 -1.61468 4.76518 158 139 132
2.49661 -1.59124 6.0286 92 36 14
2.59593 -1.40844 6.26037 94 38 19
2.95806 -1.09992 5.16909 158 106 80
3.13872 -1.06203 5.49703 79 42 26
2.46434 -0.987643 6.24277 116 70 47
2.53193 -0.910716 6.28353 16 8 6
2.81015 -0.868066 6.855 98 84 56
3.1357 -0.496041 5.8264 114 60 40
2.12139 -0.465103 6.83036 150 140 118
2.16136 -0.320303 6.47472 94 58 32
3.45583 -0.29419 5.87888 93 66 52
3.99053 -0.249794 6.37208 120 85 52
2.88888 -0.21614 5.74326 35 18 7
3.30868 -0.127852 5.91 164 140 128
3.88668 -0.121386 6.54209 42 24 14
0.986562 0.0457042 5.27528 124 47 32
2.03775 0.126213 5.87834 114 30 27
1.30446 0.551542 5.51743 126 104 98
0.680609 0.722544 5.33643 158 90 84
1.0151 0.905661 5.24292 154 32 30
3.04686 -1.8649 4.66676 16 6 4
2.93357 -1.79566 4.89884 62 48 48
3.30002 -1.73693 4.79876 161 140 133
3.30849 -1.66775 4.73146 118 80 64
2.98915 -1.63871 4.89016 192 174 174
3.30741 -1.56603 4.82215 144 132 122
2.92107 -1.54392 4.96712 80 68 62
-2.18767 -1.52588 5.39434 156 112 85
2.61534 -1.71987 6.2629 142 106 84
2.4904 -1.43547 5.24136 95 59 28
-1.90596 -1.44018 5.80096 179 119 100
2.71949 -1.23448 5.55262 102 95 80
-2.45939 -1.10649 5.73984 140 130 98
2.7963 -1.20334 5.74203 154 128 113
3.26012 -1.05495 5.68638 17 8 7
2.41144 -1.18488 8.04924 126 112 82
2.22203 -1.04189 6.43643 124 94 72
2.63608 -0.856535 6.62906 160 149 130
2.45155 -0.813607 6.66417 152 123 104
2.66707 -0.754458 6.76487 161 150 128
2.5006 -0.716093 6.662 90 54 32
-2.09175 -0.541038 5.75829 35 14 10
-2.2297 -0.470152 5.66089 102 74 50
2.80247 -0.547178 5.88416 170 129 108
-2.31708 -0.440319 6.15527 114 88 71
-2.20221 -0.426547 6.19625 64 26 16
2.97389 -0.418311 5.62081 124 93 79
-2.34205 0.143968 5.94617 107 80 52
0.988586 0.0907521 5.26338 135 36 24
3.71146 0.318344 6.5808 162 106 90
3.39499 -1.66213 5.01917 163 143 137
3.69622 -1.3746 6.3023 152 130 94
2.72852 -1.14392 5.34638 132 60 47
3.66637 -1.28387 6.28713 92 72 69
2.66134 -1.19236 6.2997 83 52 19
2.71361 -0.779482 5.61208 167 134 122
2.77596 -0.774472 5.58223 32 19 13
2.53885 -0.753192 6.34734 156 150 128
3.09627 -0.687364 5.57598 39 19 14
3.14612 -0.658472 5.50691 62 26 20
-2.10451 -0.487126 5.58661 88 38 20
3.24441 -0.48412 6.07977 97 56 36
2.13579 -0.36211 6.66991 140 86 60
2.20074 -0.334458 6.71009 98 64 42
3.3073 -0.137408 5.94168 160 132 117
3.83996 -0.151265 6.44064 31 13 4
2.21926 0.027774 6.48411 155 73 46
0.978486 0.0764239 5.78965 126 36 27
1.258 0.552627 5.42826 101 83 74
0.709774 1.23276 6.71487 136 56 54
2.05246 -2.10864 5.48275 100 74 42
-2.28156 -1.48686 5.68405 100 62 47
2.79175 -1.11534 5.3817 125 18 6
2.93116 -1.10934 5.41902 176 101 76
-1.63465 -0.688953 5.67778 113 74 48
2.82865 -0.758446 6.77514 80 70 50
2.74693 -0.574043 5.60272 80 32 16
2.87209 -0.625676 6.98939 68 64 33
3.00915 0.217346 5.80083 114 68 48
1.19635 0.505879 5.40365 118 102 90
-2.3829 0.503595 4.77097 58 21 25
1.30646 0.512649 5.44176 135 120 111
1.24044 0.545726 5.45947 131 118 110
0.879893 0.59674 5.0802 159 144 142
2.83814 -2.58431 5.3193 141 125 80
2.48725 -1.59782 6.00487 100 57 26
2.36714 -1.10271 6.03658 170 133 112
-2.26544 -0.762002 5.95043 78 36 26
2.26432 -0.664048 6.3264 136 107 80
3.1338 -0.128201 5.90902 118 106 89
2.11844 0.0973622 6.3899 174 138 122
0.893297 0.617886 4.99765 110 93 88
3.0509 -2.6278 5.37134 195 144 118
2.44607 -1.41528 6.13212 172 122 96
-1.3686 -1.1083 6.66128 93 65 35
-1.34726 -1.12981 6.93004 160 148 120
-2.34876 -0.450862 6.02534 102 64 40
2.08994 -2.40183 5.72507 148 124 95
3.23311 -1.47596 5.80157 86 46 24
2.8725 -1.16663 5.8191 172 104 92
2.75003 0.596508 5.91271 136 102 100
0.850603 0.62588 5.08437 99 81 75
2.21433 -1.89152 5.02158 135 88 62
2.8583 -1.83019 4.87328 228 211 206
2.04031 -1.91609 5.63086 102 98 72
-0.460809 -1.93824 6.00772 82 46 30
-1.69871 -1.10634 6.04716 92 55 26
3.0363 -0.790901 5.48607 31 16 10
0.645657 0.0456677 5.79601 159 142 118
1.09325 0.462697 5.20258 141 123 110
2.47089 -1.49269 6.20932 106 56 24
2.62075 -1.18447 6.2707 64 27 9
2.2065 -1.0679 5.99112 172 140 121
2.80496 -0.727634 6.82694 38 26 4
-2.25105 0.536533 6.00665 136 89 64
1.23954 0.608342 5.53431 138 122 110
2.37675 -1.6333 4.96498 130 34 28
2.1291 -1.06452 5.9866 68 38 15
2.2022 -1.00739 6.01506 69 39 22
-2.29039 -0.739426 5.90986 103 58 40
2.76343 -0.839546 6.67401 93 80 52
2.588 0.355348 6.20184 199 182 176
2.16803 -1.08228 6.13947 82 54 28
2.63333 -0.853037 6.62905 154 140 118
-1.23626 -0.570212 5.36629 126 75 52
-1.23642 -0.4437 5.76911 106 62 52
-2.28122 -0.264066 5.48222 163 123 104
1.21171 0.482875 5.43376 152 134 118
2.95738 -2.73568 5.2114 220 174 148
2.93902 -2.59222 5.2632 210 158 136
2.90077 -2.61225 5.42991 107 78 44
2.83108 -2.55596 5.32966 158 127 96
2.8529 -2.53514 5.29831 137 82 56
2.20515 -2.67211 6.0273 119 100 57
2.22548 -2.64915 5.97862 100 82 44
-0.702774 -1.93081 6.03165 131 88 72
2.14056 -1.80392 5.27048 100 88 74
2.1383 -1.77092 5.30307 138 122 112
2.06983 -1.84446 5.68374 124 101 74
-1.95489 -1.66587 5.69002 94 65 45
2.10135 -1.78813 5.69992 126 98 68
-0.818855 -1.80591 6.22573 158 110 88
-0.750322 -1.74848 6.07177 82 25 8
-2.24603 -1.56868 5.46 178 132 105
-1.85396 -1.59964 5.71657 66 29 10
-0.889824 -1.71324 6.30122 116 101 74
-0.715559 -1.64709 6.00434 88 18 4
-2.33287 -1.46563 5.50047 130 89 72
-0.752351 -1.4129 6.25972 164 116 84
-0.0373437 -1.4216 6.27431 134 111 90
-0.657129 -1.37716 6.10039 186 132 102
2.47191 -1.40419 6.08655 150 104 84
-0.828503 -1.26874 6.33237 101 62 28
-0.216676 -1.26077 6.20521 127 81 66
-1.01964 -1.31214 7.08489 106 73 39
-2.02539 -1.09477 5.8053 208 152 120
2.90693 -1.07874 5.47527 210 126 106
-1.21753 -1.13006 6.89143 68 32 12
-2.48917 -0.925878 5.88684 156 135 113
2.99218 -0.93959 5.50467 46 16 6
-2.45785 -0.898044 5.77891 40 10 2
3.07553 -0.8607 5.52156 140 91 75
-2.69116 -0.678246 4.04286 94 94 124
-0.111439 -0.821187 6.306 98 80 61
-0.316953 -0.743386 6.41321 56 17 6
3.08048 -0.709928 5.58045 50 21 16
-2.3741 -0.676708 5.8402 188 134 110
-2.7251 -0.583465 4.12838 104 86 90
-1.48613 -0.626515 5.59716 82 36 15
2.68487 -0.638555 5.6083 120 66 42
3.12451 -0.584758 5.57986 60 30 15
-0.91299 -0.520037 5.50838 164 111 96
-2.03434 -0.464131 5.88347 97 48 32
-2.04961 -0.447423 6.02615 94 43 27
3.3628 -0.415214 5.93121 61 40 19
3.33711 -0.351637 6.00038 44 22 11
2.94232 -0.316666 5.81408 166 143 132
3.27868 -0.31581 5.99891 36 15 5
2.7274 -0.309591 5.92025 50 24 6
3.01742 -0.309544 5.8813 68 44 31
-2.72694 -0.335954 4.13278 185 72 74
-1.50793 -0.299578 5.55963 110 65 50
2.66282 -0.281597 5.90511 135 108 96
-2.45977 -0.311332 4.21057 152 97 96
-2.43879 -0.296959 4.24155 160 108 108
3.02099 -0.215933 5.83884 132 100 84
-2.44688 -0.235502 4.18141 46 18 15
-2.78768 -0.221921 4.06289 79 38 32
-2.79445 -0.201051 4.11711 71 28 24
-2.11597 -0.162479 4.85327 147 54 31
3.06758 -0.0809726 5.89356 202 180 168
-2.78185 -0.197899 4.13075 181 122 116
-2.48049 -0.150756 4.71518 165 131 110
-2.45297 -0.141508 4.69833 110 69 38
3.0057 0.263528 5.71875 156 116 102
-2.9661 0.0743755 4.30124 132 53 28
-2.99285 0.083093 4.33776 168 134 106
2.6502 0.40115 5.83588 112 72 58
-0.974126 0.483388 6.5143 188 140 111
3.32719 0.562203 5.91403 52 37 30
2.72557 0.612541 5.95195 49 20 17
-2.46946 0.312407 4.53241 120 112 126
-0.0611884 0.50617 5.52914 116 95 82
-2.5101 0.316834 4.53839 36 32 46
-2.49307 0.33522 4.55784 94 89 100
-1.46925 0.59878 6.09078 137 89 70
-2.58483 0.359054 4.53531 124 118 130
-0.0801765 0.578021 5.47435 186 164 152
-1.62288 0.657809 6.11078 51 16 10
-0.0817782 0.595706 5.46671 120 96 84
-2.99467 0.395578 4.32262 132 92 44
-2.92875 0.409556 4.37418 138 53 30
0.831162 0.631844 5.00486 128 115 110
-2.41738 0.517697 4.75538 48 22 31
0.802254 0.696143 5.02387 72 52 50
-2.39735 0.633619 4.79881 130 48 36
0.252074 0.892539 5.49606 140 69 58
-2.91213 0.734757 4.6779 170 98 90
0.381245 1.02334 5.47055 154 135 132
-2.70454 0.749498 4.6502 146 84 50
0.350912 1.04282 5.45958 132 104 98
-2.73362 0.786001 4.70611 118 36 12
-2.42818 0.909558 5.10117 153 102 94
0.323534 1.13981 5.48601 99 67 62
-2.90263 0.960973 4.88219 140 52 26
-2.67742 1.03228 4.85742 136 56 36
3.01083 -2.63099 5.36835 178 124 100
2.16555 -2.18679 6.10011 134 85 54
2.14524 -2.14004 6.13133 130 96 57
-0.609928 -1.89599 5.97727 64 27 11
2.06992 -1.8764 5.7553 96 78 54
-2.21441 -1.63887 5.50729 110 72 50
-0.819944 -1.80322 6.19348 133 88 69
2.41838 -1.64508 4.99125 110 42 32
2.40239 -1.61706 4.96674 118 34 28
2.25631 -1.58214 5.20318 164 136 124
-2.32595 -1.45027 5.52849 96 60 42
-2.35512 -1.43546 5.53074 57 23 8
-2.25697 -1.27371 5.50639 124 86 68
-0.727897 -1.412 6.19646 83 37 13
-0.0384222 -1.42326 6.25571 106 84 63
-0.725369 -1.41106 6.31441 94 47 20
-0.63388 -1.38842 6.15546 201 146 117
2.96429 -1.1303 5.46967 160 82 62
2.8973 -1.08072 5.46541 181 96 74
2.27662 -1.0781 5.95389 132 102 87
-1.24701 -1.10048 6.77214 117 70 50
2.43189 -1.04392 6.0828 138 103 84
2.83644 -0.969239 5.47001 138 52 35
2.81423 -0.874422 5.50285 66 56 54
2.94938 -0.847466 5.48351 45 35 32
2.96369 -0.736021 5.46551 22 10 10
-0.323806 -0.746425 6.38008 58 20 10
3.06542 -0.675273 5.55709 111 82 83
3.07604 -0.591878 5.51321 68 39 25
2.96692 -0.585327 5.59569 31 11 8
2.94804 -0.56878 5.53616 106 78 66
3.04552 -0.53305 5.58204 159 100 82
-1.16814 -0.476953 5.39629 128 84 68
3.08785 -0.475959 5.88018 100 63 43
-2.22635 -0.46228 5.99009 50 15 8
3.29889 -0.321234 6.02676 34 14 6
2.68784 -0.315352 5.85546 65 35 18
3.01633 -0.313343 5.87594 70 46 33
2.7407 -0.279035 5.99724 146 111 96
-2.45779 -0.314377 4.19193 118 32 32
-2.43857 -0.30252 4.23676 150 94 94
-2.84677 -0.287126 4.14684 189 131 122
3.00473 -0.221144 5.86216 30 18 10
3.31834 -0.191567 5.95183 99 58 40
2.8333 -0.16826 5.91162 84 55 37
3.30066 -0.120192 5.93235 172 148 137
-2.50893 -0.206914 4.2249 152 104 107
-2.48556 -0.199793 4.19447 154 110 112
-2.12067 -0.163043 4.8678 148 66 32
2.63962 0.163085 5.95627 118 70 50
2.70014 0.405134 5.91734 132 98 88
3.41572 0.566798 6.01072 43 32 24
-2.47558 0.31402 4.55138 103 96 108
-2.22882 0.57603 6.1537 182 130 109
-0.0280055 0.553065 5.49789 137 118 112
-0.0467902 0.574257 5.56551 100 78 68
-0.0749522 0.57807 5.48727 149 126 114
-0.00103251 0.597948 5.41728 140 118 108
-3.0019 0.392191 4.33715 136 90 38
-2.3805 0.498451 4.75522 60 33 42
0.527901 0.642854 5.09404 88 78 78
0.475097 0.655421 5.02603 114 98 94
-2.56379 0.59096 4.63832 28 18 31
-2.72506 0.613876 4.51611 50 32 40
0.25804 0.919453 5.52346 80 28 21
1.01343 0.906265 5.23548 135 41 37
0.369281 1.05413 5.47915 145 119 114
-2.70397 0.92227 5.16048 138 94 87
-2.7099 0.902686 5.02481 160 122 107
-2.92521 1.01751 4.94066 158 88 78
2.9681 -2.70977 5.43694 160 142 104
2.85759 -2.59309 5.37042 120 94 58
2.83389 -2.55572 5.33979 158 128 98
2.83915 -2.53006 5.29979 126 78 48
2.29119 -2.71837 6.20761 129 112 68
2.06838 -2.16967 5.83593 98 60 30
2.11059 -1.96849 5.09235 146 106 84
-0.378037 -2.07482 6.08474 40 23 9
2.15523 -2.14812 6.14919 132 99 60
2.21661 -1.84849 4.96001 132 88 66
-0.454709 -1.93831 6.02018 97 62 44
2.14798 -1.95756 5.88467 84 73 50
2.11809 -1.79459 5.24587 93 84 71
2.35234 -1.72891 4.93101 110 62 42
2.15383 -1.97328 6.08599 116 108 62
2.08587 -1.9098 5.85734 128 116 86
2.06877 -1.87527 5.75849 94 76 52
-0.831536 -1.74613 6.25822 56 21 6
-2.27187 -1.51406 5.46667 152 105 81
-1.89203 -1.56181 5.62931 169 116 96
-2.34116 -1.42171 5.44467 57 23 6
-0.0241969 -1.46193 6.27719 67 44 20
-0.619461 -1.40385 6.24517 188 132 104
-0.579391 -1.40393 6.22305 210 158 128
2.53741 -1.43391 6.26679 154 104 80
2.47721 -1.41086 6.103 130 82 60
2.96995 -1.12814 5.48307 162 84 64
-0.160637 -1.12746 6.17438 166 121 104
2.76279 -1.13821 5.96638 62 50 28
-0.172725 -0.961693 6.10645 178 126 106
3.02572 -0.938878 5.55108 46 16 6
-2.27603 -0.857663 5.79403 107 62 48
-2.77788 -0.71175 4.13342 136 130 120
2.97957 -0.848059 5.52068 50 38 36
2.9961 -0.757235 5.4727 106 76 70
-2.15985 -0.701895 5.9146 88 42 27
3.09545 -0.714251 5.58557 44 15 10
3.05396 -0.674062 5.52931 104 76 75
-2.62343 -0.581255 4.2619 134 120 116
-2.77376 -0.561539 4.29085 156 140 127
-2.29091 -0.582584 5.93987 106 66 57
2.95613 -0.531142 5.67101 176 148 133
-0.883663 -0.502802 5.56622 106 50 36
3.25728 -0.444246 5.91265 100 67 52
3.27062 -0.391513 5.83756 28 10 4
2.92117 -0.382383 5.8008 139 112 96
3.38938 -0.351038 6.0858 30 10 2
2.61428 -0.342172 5.74746 146 96 74
-2.72671 -0.338786 4.102 174 59 62
3.1333 -0.3091 6.04986 77 52 40
2.93288 -0.281333 5.75898 168 143 132
-2.43232 -0.313804 4.14742 144 86 84
-2.8629 -0.300523 4.14701 147 41 35
-2.50203 -0.234161 4.15931 137 64 72
-2.76856 -0.237794 4.10503 170 106 102
-2.49673 -0.229795 4.15822 162 117 122
3.0841 -0.136565 5.83402 122 100 83
-2.77314 -0.209186 4.1129 186 132 128
-2.76767 -0.200643 4.08704 178 136 129
-2.47682 -0.200404 4.21067 159 134 132
-2.82693 -0.19771 4.14884 178 133 124
-2.12087 -0.163627 4.856 148 66 32
-2.82526 -0.191126 4.1708 172 132 121
-2.7852 -0.187192 4.10547 154 95 89
2.11114 0.108619 6.23028 115 36 21
-2.09974 -0.0134161 4.83194 130 50 30
2.82403 0.23105 5.69599 154 122 109
-2.9855 0.0747763 4.36189 134 48 32
-2.996 0.082161 4.33885 165 136 117
2.78169 0.426109 6.04216 126 90 78
2.70116 0.448755 5.81468 88 33 28
-2.57007 0.265596 4.49958 55 50 60
2.72608 0.606997 5.94413 33 10 6
-2.55594 0.322036 4.50473 28 24 36
-0.0470876 0.567584 5.57113 92 72 62
-0.074217 0.546101 5.30867 155 136 130
-0.0134563 0.594642 5.50541 100 80 75
-2.96641 0.368612 4.22365 132 88 40
0.775146 0.61528 5.08468 134 116 108
0.251245 0.887435 5.50376 142 78 67
-2.68833 0.629018 4.53555 46 22 33
0.324844 0.9555 5.26537 160 126 122
-2.65252 0.767869 4.77087 146 92 79
-2.69328 0.739154 4.6175 131 67 41
-2.78378 0.78596 4.56133 128 22 14
-2.65017 0.841945 4.77644 140 94 75
0.628114 1.11681 5.45064 66 38 36
0.323557 1.10718 5.36169 198 172 167
-2.45996 0.943392 5.04446 144 62 36
-2.89435 0.957462 4.84574 148 83 58
-2.9382 1.02738 4.97884 157 104 93
-2.99015 1.0859 5.05572 141 80 70
2.96975 -2.70613 5.44427 161 148 110
2.88652 -2.58625 5.43311 152 130 101
2.23922 -2.69117 6.08723 154 139 94
2.15258 -2.42015 6.08916 164 155 106
2.07707 -2.08884 5.69561 122 103 83
2.16927 -2.14358 6.15475 124 72 40
2.0844 -1.9329 5.75388 81 72 50
2.04248 -1.89695 5.76663 130 118 90
-2.16641 -1.66835 5.41959 87 58 36
2.10955 -1.85114 5.70873 102 74 46
-0.59228 -1.80299 5.97887 180 118 98
2.14893 -1.7494 5.34773 76 58 51
2.09106 -1.7943 5.65348 118 92 68
-2.1662 -1.61153 5.49507 148 102 79
2.41923 -1.63994 4.99441 115 21 12
-0.765654 -1.76225 6.06995 83 32 20
-2.24213 -1.56964 5.46102 164 117 90
-0.834543 -1.72039 6.1194 114 70 48
-1.89131 -1.57235 5.63202 172 116 96
-2.26147 -1.49998 5.41685 166 117 92
-2.3551 -1.50074 5.53901 124 82 60
-2.3157 -1.49115 5.48889 68 32 15
-1.87944 -1.53366 5.64176 94 52 39
-2.38682 -1.44655 5.7213 54 21 6
-2.081 -1.39516 5.56724 166 112 98
-1.98311 -1.34546 5.51108 60 16 8
-0.0566884 -1.41091 6.13905 106 84 63
-2.08561 -1.2033 5.68678 100 48 34
2.75634 -1.24766 5.92537 90 76 56
2.78348 -1.15069 5.90232 98 82 68
2.88764 -1.03447 5.42905 140 48 30
-1.21307 -1.10733 6.82782 62 23 6
-2.18059 -0.962226 5.92147 97 50 38
2.20537 -1.00331 5.99858 64 34 22
2.8023 -0.963766 5.41921 128 50 34
-0.173412 -0.977677 6.2475 150 100 82
2.79534 -0.872484 5.48267 73 62 61
-0.083368 -0.844029 6.41845 154 134 115
-1.32126 -0.662692 5.38106 226 174 137
2.89174 -0.641712 5.6269 178 154 144
2.79766 -0.595136 5.76474 64 20 4
-2.35621 -0.56036 5.88912 49 18 9
-0.884377 -0.501452 5.59517 106 50 36
-2.04628 -0.473058 5.89652 71 26 10
3.13125 -0.46486 5.94693 80 41 21
-2.04552 -0.450891 5.91427 74 25 12
2.29716 -0.45983 6.45639 88 52 28
-2.13854 -0.409014 6.49062 61 21 11
2.84578 -0.391253 5.69177 147 120 104
2.68573 -0.344415 5.83051 160 112 88
2.83739 -0.331874 5.66248 174 146 136
3.16831 -0.330903 5.83368 34 15 6
2.70094 -0.314753 5.87485 52 24 8
-2.80401 -0.316563 3.95861 146 38 34
-2.86237 -0.302126 4.14481 145 40 34
2.60749 -0.230726 5.94075 10 6 2
-2.84629 -0.284228 4.14881 192 147 138
2.94868 -0.208394 5.8088 27 20 14
2.83002 -0.171045 5.90583 84 55 37
-2.50162 -0.227258 4.16492 140 68 76
-2.82034 -0.212306 4.112 182 147 138
-2.79278 -0.214645 4.09296 72 30 24
3.1133 -0.0788116 5.95248 185 161 150
-2.45111 -0.168824 4.57077 157 124 102
2.85974 0.240948 5.73936 157 128 114
-2.98748 0.0754244 4.37676 134 38 27
-3.02142 0.0838642 4.40519 164 138 120
2.78034 0.42774 6.02353 116 74 57
2.62912 0.41813 5.84361 150 126 118
-2.48106 0.210013 4.52193 124 116 118
-0.732083 0.549909 6.55606 195 142 112
-0.0334978 0.57601 5.64147 90 69 60
0.00744151 0.590287 5.50436 93 70 64
-2.62231 0.364728 4.41267 37 34 44
-2.59594 0.419695 4.48301 20 15 26
0.853603 0.617744 5.0182 72 60 55
-2.40856 0.511053 4.7412 48 27 36
-2.33027 0.594452 4.89715 127 44 40
-2.57354 0.576828 4.65232 31 20 32
-2.72562 0.613689 4.5198 50 32 40
