ply
format ascii 1.0
element vertex 1291
property float x
property float y
property float z
property uchar red
property uchar green
property uchar blue
end_header
-0.897123 0.503114 4.47743 162 140 138
-1.34854 -0.559612 4.42797 164 165 118
-0.973974 -0.597746 4.66082 148 152 117
-1.33955 -0.53465 4.425 122 120 96
-0.993422 -0.585731 4.66021 152 150 117
-1.29385 -0.515789 4.43364 184 182 135
-1.30685 -0.505168 4.4192 183 180 162
-1.29876 -0.506623 4.42232 132 130 107
-1.33042 -0.49983 4.40254 110 108 84
-1.28672 -0.494981 4.4198 114 114 82
-1.27228 -0.493072 4.42812 211 208 162
-1.26436 -0.490916 4.43392 164 160 117
-0.953957 -0.522851 4.59939 174 178 146
-1.29235 -0.465952 4.41446 119 116 92
-1.22932 -0.463128 4.43976 142 140 102
-1.2521 -0.427473 4.40342 160 158 136
-0.954496 -0.36848 4.48292 170 174 131
-0.775248 -0.337482 4.32949 148 152 110
-0.951442 -0.360807 4.48649 129 134 90
-0.941661 -0.318342 4.45869 132 136 90
-1.0334 -0.289526 4.45275 184 184 146
-1.01479 -0.216024 4.41505 154 154 132
-1.0102 -0.210778 4.4123 166 167 142
-0.989889 -0.207564 4.41996 142 142 113
-0.97133 -0.141416 4.25064 224 226 188
-0.561682 0.102843 4.26419 168 130 111
-0.688177 0.0948202 4.22797 62 50 36
-0.703526 0.0937795 4.19956 47 36 22
-0.542938 0.12529 4.26928 172 116 92
-0.612573 0.118375 4.25557 73 46 27
-0.608256 0.122753 4.22903 102 73 55
-1.02791 0.0504438 4.06464 74 69 42
-1.01829 0.0618423 4.03487 128 136 98
-0.857338 0.110729 4.15628 155 130 116
-0.834109 0.121713 4.20061 84 48 30
-0.866392 0.128804 4.14786 180 142 133
-0.844962 0.137242 4.15321 152 120 112
-0.981444 0.141284 4.28427 132 109 99
-0.996596 0.140992 4.27466 83 42 27
-0.738725 0.179812 4.17578 178 143 132
-0.670281 0.173008 4.02593 234 231 216
-1.08072 0.164225 4.38747 95 56 40
-1.04863 0.167714 4.30879 194 152 134
-0.691098 0.218904 4.22551 124 88 82
-0.784972 0.197564 4.18126 70 37 28
-1.00435 0.179268 4.27161 134 92 76
-0.994204 0.181404 4.27188 156 120 108
-0.733047 0.22127 4.20852 98 68 67
-0.996562 0.188053 4.27706 176 154 150
-0.629874 0.258338 4.28223 99 67 64
-0.736044 0.227085 4.2266 78 46 40
-1.05355 0.246144 4.63356 174 135 111
-0.989235 0.193049 4.27746 64 33 26
-0.734836 0.234719 4.22866 55 30 23
-1.05328 0.271118 4.62996 196 177 154
-0.992543 0.219977 4.27356 69 40 34
-0.640556 0.234068 3.98218 170 165 141
-1.05268 0.283526 4.61508 75 52 33
-1.03678 0.292325 4.62322 162 134 118
-1.04577 0.2951 4.62211 200 190 166
-1.02411 0.308091 4.65416 187 162 153
-1.02588 0.315347 4.65771 108 82 63
-0.616338 0.328056 4.32968 189 168 161
-0.959251 0.252293 4.27808 128 90 87
-1.09657 0.152246 3.93512 156 127 114
-0.756318 0.289776 4.2531 159 126 124
-0.615143 0.337976 4.34363 81 54 48
-0.620269 0.343693 4.35476 128 95 92
-0.722354 0.308761 4.28048 168 140 138
-0.730864 0.301438 4.25654 70 42 38
-1.00437 0.270851 4.36229 158 118 104
-0.636707 0.349006 4.33663 90 58 54
-0.965313 0.299495 4.35642 70 34 28
-1.01476 0.369029 4.66171 188 168 142
-0.96608 0.302694 4.32956 70 42 38
-0.961966 0.337104 4.36127 57 20 13
-0.994841 0.382942 4.5537 70 30 16
-0.723484 0.39471 4.33157 164 142 143
-1.00252 0.427647 4.65366 169 142 122
-0.940714 0.368341 4.37809 86 52 48
-0.979584 0.448633 4.69359 146 114 99
-0.991526 0.448801 4.66689 81 50 36
-0.681937 0.467853 4.40774 119 76 74
-0.735493 0.450642 4.36271 90 52 48
-0.716768 0.471756 4.39593 90 55 52
-0.679164 0.522106 4.4425 112 68 64
-0.944907 0.519392 4.61611 160 122 112
-0.965349 0.497376 4.54202 80 37 25
-0.892046 0.512889 4.48472 152 134 134
-1.328 -0.529395 4.39964 184 180 142
-1.32419 -0.510907 4.427 166 160 144
-1.29814 -0.505715 4.42102 124 121 98
-1.28577 -0.495983 4.42375 116 115 86
-0.949419 -0.531483 4.61943 171 174 142
-1.29573 -0.464053 4.4054 116 114 90
-1.26087 -0.458941 4.41347 154 154 133
-1.22755 -0.443157 4.42557 173 170 148
-1.22216 -0.443426 4.42508 133 131 98
-1.26765 -0.428418 4.41018 123 118 88
-1.21514 -0.41041 4.40991 148 148 125
-0.744605 -0.377182 4.33158 101 108 67
-0.94605 -0.31579 4.44585 130 134 88
-0.786124 -0.253503 4.27499 148 151 114
-0.766385 -0.241425 4.56505 176 176 126
-0.94073 -0.205209 4.23468 180 178 130
-0.997921 -0.20661 4.40102 150 150 120
-0.40012 -0.118494 4.38582 128 125 85
-0.852877 -0.150223 4.48528 229 232 194
-0.687721 -0.113188 5.06126 186 188 154
-1.12356 -0.117495 4.51749 180 153 127
-0.875409 -0.0859734 4.76631 214 214 174
-0.565128 0.0947041 4.29405 80 50 24
-0.568933 0.106435 4.27656 204 160 139
-0.685748 0.099234 4.22014 36 25 12
-0.594347 0.124835 4.27556 73 41 22
-0.507267 0.146429 4.36073 108 76 56
-0.642452 0.126848 4.20407 161 132 106
-0.653367 0.144836 4.12085 189 183 165
-0.877718 0.121288 4.14266 38 15 6
-0.734624 0.15716 4.20484 45 30 14
-0.74028 0.156962 4.18237 167 145 131
-0.740443 0.156691 4.17328 74 58 36
-0.667445 0.157944 4.06016 173 169 148
-0.746192 0.162654 4.1807 89 62 41
-0.703099 0.173633 4.16458 214 198 194
-0.85963 0.153673 4.19509 130 104 97
-0.743135 0.178825 4.16941 172 136 126
-0.649225 0.200305 4.20185 206 188 180
-1.08999 0.160055 4.3815 154 115 100
-0.714083 0.181917 4.06181 112 112 84
-1.04894 0.217005 4.6202 94 57 38
-1.04306 0.16973 4.31033 187 146 130
-0.606434 0.249826 4.2813 209 192 185
-0.997595 0.185419 4.27638 172 146 142
-0.734602 0.224426 4.21547 163 134 133
-1.04196 0.252949 4.6651 182 144 120
-1.05019 0.252384 4.62683 78 38 18
-1.03266 0.26989 4.61721 66 23 10
-1.05212 0.272264 4.63446 200 179 157
-0.73826 0.260025 4.22512 118 83 80
-1.04049 0.283514 4.62593 84 46 28
-1.03882 0.292037 4.61707 186 161 148
-1.05344 0.288288 4.59684 197 184 162
-1.03662 0.298023 4.6171 190 166 158
-0.941733 0.292924 4.50318 82 41 29
-1.01434 0.324199 4.68953 100 73 56
-0.615188 0.328207 4.33054 185 165 158
-0.71088 0.298121 4.26579 86 52 44
-0.764163 0.285902 4.24036 188 155 154
-0.60823 0.343419 4.35604 98 70 66
-0.669706 0.251948 3.98797 135 134 114
-1.00449 0.271175 4.36332 158 118 104
-0.621585 0.352728 4.35407 87 56 52
-0.601256 0.37006 4.36622 120 98 93
-1.01487 0.370656 4.66179 200 182 156
-0.789521 0.333792 4.27653 96 60 58
-0.95947 0.338659 4.36696 58 20 14
-0.683619 0.394715 4.34943 115 74 70
-0.726737 0.379019 4.31642 186 164 164
-0.713157 0.39815 4.33593 82 53 53
-0.999856 0.42933 4.66137 154 125 106
-0.986874 0.452754 4.67633 78 46 32
-0.980666 0.483145 4.52942 153 108 98
-0.983319 -0.633048 4.7386 163 162 136
-0.950656 -0.615428 4.7196 152 156 120
-1.29177 -0.461178 4.39036 161 156 136
-1.23222 -0.460899 4.43022 144 142 104
-1.24807 -0.444172 4.40869 140 138 115
-1.19731 -0.424671 4.42391 214 212 174
-1.21715 -0.416977 4.42362 137 136 114
-0.865294 -0.427188 4.54847 223 226 184
-0.899832 -0.392212 4.53233 162 172 130
-0.9 -0.328225 4.46885 168 175 137
-0.939966 -0.328198 4.46663 171 172 128
-0.983788 -0.185967 4.40872 152 152 122
-0.950583 -0.163731 4.43112 172 172 143
-0.89173 -0.14907 4.40979 231 234 194
-0.60109 0.0770387 4.25563 84 54 35
-0.566233 0.0969541 4.29937 70 38 20
-0.592048 0.122577 4.25831 178 139 113
-0.583139 0.129579 4.2571 88 58 35
-0.685506 0.108091 4.17616 144 136 113
-1.03322 0.0769187 4.01135 130 136 103
-0.864746 0.132969 4.15103 174 136 130
-0.750538 0.154194 4.1639 180 160 145
-0.713122 0.162755 4.17812 174 158 147
-0.769807 0.161465 4.18037 190 148 126
-0.742073 0.165144 4.18972 102 72 51
-0.856861 0.158008 4.20006 126 104 98
-0.873097 0.154697 4.1603 78 40 29
-1.0363 0.155697 4.33007 144 103 82
-1.08641 0.16412 4.37647 96 58 42
-0.713175 0.181408 4.07355 75 74 52
-0.661583 0.216101 4.19669 150 124 118
-0.617386 0.245891 4.27005 168 146 140
-1.05505 0.246563 4.62913 196 159 134
-0.856691 0.213469 4.1851 68 38 36
-1.0323 0.269732 4.62325 62 21 7
-1.01678 0.183886 4.12834 164 122 116
-0.985059 0.218959 4.30226 160 135 131
-1.05211 0.273973 4.63493 212 194 172
-0.678717 0.226166 4.02105 120 118 100
-0.634737 0.294261 4.30434 110 74 70
-0.994949 0.217315 4.26144 61 28 22
-1.03898 0.295601 4.61594 162 144 131
-0.715977 0.322201 4.30498 86 55 52
-1.00222 0.385333 4.66065 82 40 22
-0.683385 0.398498 4.35563 109 70 63
-1.00866 0.411364 4.67751 114 90 66
-0.709074 0.39908 4.33792 85 54 53
-0.945844 0.367209 4.3824 152 126 125
-0.997222 0.43487 4.66702 171 148 128
-0.995094 0.434527 4.64999 152 118 105
-0.641979 0.470549 4.42647 116 72 69
-0.726055 0.449722 4.36593 160 130 128
-0.698206 0.464465 4.39445 91 52 50
-1.29826 -0.507356 4.42151 134 130 106
-1.28927 -0.491097 4.40825 108 108 78
-1.26556 -0.489857 4.43036 164 160 117
-1.30207 -0.471818 4.42262 108 110 83
-1.28808 -0.462718 4.40093 170 164 143
-1.22738 -0.451215 4.42585 204 202 164
-1.2209 -0.440963 4.42335 120 118 86
-1.25592 -0.430501 4.41041 160 156 133
-1.26734 -0.428016 4.41003 114 110 78
-0.703237 -0.404545 4.37562 219 224 181
-0.860439 -0.41298 4.54764 150 156 116
-0.737583 -0.351716 4.39159 105 110 70
-1.05115 -0.249618 4.41414 160 159 138
-1.22633 -0.218431 4.64793 178 176 129
-1.1388 -0.146545 4.57447 218 216 176
-0.567617 0.0818896 4.30151 92 62 42
-0.575906 0.0915139 4.28642 66 37 16
-0.547929 0.109231 4.27864 138 98 75
-0.69579 0.0945286 4.2214 72 62 44
-0.665682 0.113541 4.20409 121 117 92
-0.63212 0.139234 4.17784 213 189 172
-0.850966 0.119218 4.14795 80 57 44
-0.739902 0.156012 4.17125 74 64 40
-0.746717 0.155952 4.17675 128 104 88
-0.754351 0.150918 4.12854 148 134 122
-0.656719 0.160013 4.07422 194 188 170
-0.745489 0.177282 4.1669 189 154 144
-1.04247 0.183008 4.44793 70 32 16
-0.740754 0.206113 4.21569 57 24 17
-1.00198 0.176784 4.24944 156 110 94
-0.723914 0.22625 4.22092 76 50 47
-0.631987 0.253774 4.27582 126 93 89
-0.995624 0.189029 4.26083 68 31 22
-0.747276 0.228416 4.21951 82 49 42
-1.06328 0.248761 4.63718 179 153 124
-1.05372 0.254443 4.6144 71 36 20
-0.982355 0.223367 4.28975 61 29 22
-1.05341 0.282982 4.62257 138 120 99
-0.75298 0.267244 4.23302 70 47 46
-1.03406 0.301883 4.645 202 189 168
-0.962105 0.269127 4.3307 37 16 12
-0.807399 0.286734 4.2362 104 69 66
-0.999889 0.390917 4.6688 84 43 24
-0.677288 0.401961 4.36694 114 75 68
-0.737317 0.380336 4.30778 160 140 141
-0.93158 0.3763 4.39441 79 46 41
-0.63327 0.350469 3.98376 122 88 69
-0.976322 0.441351 4.57059 153 115 102
-0.97026 0.494538 4.56106 134 91 78
-0.893633 0.508584 4.48408 144 120 117
-1.2984 -0.471085 4.42405 105 106 82
-1.28609 -0.461912 4.40466 174 164 142
-0.714905 -0.402268 4.36263 155 158 116
-0.887794 -0.305933 4.46161 180 184 152
-0.881175 -0.15148 4.44087 229 236 196
-1.14096 -0.147298 4.5753 196 194 156
-0.603224 0.11677 4.26809 110 80 62
-0.660588 0.108144 4.22268 42 24 11
-0.845781 0.13486 4.20303 36 21 14
-0.743595 0.156693 4.18188 98 76 58
-0.746234 0.164548 4.18561 118 82 60
-0.671874 0.164796 4.05061 114 111 90
-0.736923 0.180998 4.18116 194 160 148
-0.654804 0.214731 4.20967 136 108 100
-0.689832 0.17162 3.99843 138 136 110
-0.750519 0.216732 4.19899 138 101 100
-1.06868 0.236407 4.59097 160 122 98
-0.634183 0.258462 4.2615 145 118 114
-0.971565 0.204555 4.21379 145 104 98
-0.636782 0.295319 4.30245 118 82 78
-1.05177 0.284415 4.62387 86 61 42
-0.842579 0.246398 4.20275 88 49 42
-1.03928 0.298565 4.63178 204 192 170
-0.873063 0.240888 4.18499 80 46 40
-0.645348 0.318005 4.29397 174 150 143
-1.02882 0.346407 4.66309 142 116 93
-0.931007 0.318454 4.39079 59 28 24
-0.740213 0.350784 4.30054 102 66 60
-0.651889 0.398568 4.36436 98 60 58
-1.00269 0.377628 4.55238 74 28 12
-0.630372 0.355693 4.02951 152 122 108
-0.63196 0.480799 4.44875 142 100 96
-0.949813 0.514959 4.58268 80 40 28
-0.912292 0.497008 4.4537 100 58 52
-1.24608 -0.453574 4.39257 170 167 132
-1.22387 -0.45413 4.44189 172 170 136
-1.27617 -0.202247 4.64997 107 95 60
-0.511245 0.0583874 4.38727 68 35 16
-0.58054 0.08802 4.28358 74 46 26
-0.59237 0.129655 4.26595 180 155 135
-0.621164 0.143665 4.19325 198 177 158
-0.865186 0.117175 4.12543 126 94 80
-0.752754 0.151183 4.16873 118 97 82
-0.755876 0.160512 4.17317 120 85 62
-0.694181 0.178424 4.18702 201 184 184
-0.67088 0.178426 4.01989 100 99 68
-0.878756 0.168653 4.16036 225 194 190
-0.71603 0.214035 4.20143 116 82 73
-0.896892 0.18816 4.16576 196 166 154
-1.00166 0.210506 4.27116 138 111 108
-0.636116 0.316962 4.30179 186 162 157
-0.639451 0.331346 4.31782 102 72 70
-0.619653 0.362913 4.34525 124 98 92
-1.00686 0.380802 4.70094 196 182 152
-0.762978 0.339777 4.26592 96 61 56
-1.00913 0.386409 4.65116 96 56 37
-0.731968 0.378543 4.31576 118 92 90
-0.931815 0.378051 4.38622 86 42 36
-0.627952 0.350815 4.01311 226 218 212
-1.28631 -0.458603 4.39762 180 170 150
-0.880066 -0.158017 4.45366 224 236 194
-0.518064 0.0567391 4.37896 74 42 20
-0.570561 0.0997999 4.27403 192 153 132
-0.650011 0.0999637 4.20228 109 70 55
-0.65802 0.111235 4.21137 117 104 83
-0.620317 0.119908 4.2305 172 143 125
-0.727905 0.194487 4.19392 226 200 199
-0.933302 0.219017 4.2893 130 84 77
-1.04732 0.237682 4.40977 60 26 14
-0.75774 0.26534 4.23646 110 77 75
-1.03879 0.299225 4.64223 180 167 144
-0.959379 0.266399 4.32131 51 24 21
-0.958921 0.303014 4.32878 50 24 20
-0.640866 0.397775 4.37753 120 82 80
-0.967798 0.352282 4.34583 101 66 60
-0.894043 0.506136 4.4914 108 63 56
-1.442 -0.628772 4.42927 101 93 50
-1.26789 -0.428679 4.40872 90 86 60
-1.09707 -0.346191 4.44284 156 155 116
-1.04874 -0.247291 4.41458 138 136 116
-1.01609 -0.216157 4.4134 136 134 112
-0.985673 -0.186347 4.40688 136 135 108
-0.902664 -0.14554 4.37965 176 180 134
-0.582802 0.120135 4.26463 157 116 92
-0.601645 0.123768 4.25714 88 58 40
-0.598566 0.128275 4.24924 192 168 154
-0.842068 0.104678 4.19918 126 104 86
-0.85592 0.114819 4.16655 62 28 11
-0.863289 0.129518 4.15227 154 116 106
-0.724981 0.157775 4.15496 98 88 72
-0.849748 0.137725 4.14623 132 98 92
-0.656455 0.178316 4.03829 184 182 162
-0.657758 0.179577 4.03153 128 125 104
-0.986584 0.221311 4.29797 138 115 109
-1.0297 0.305184 4.63874 160 136 126
-0.667917 0.25265 3.99164 106 106 88
-0.950133 -0.600834 4.67192 172 174 134
-1.34213 -0.526153 4.41858 114 114 93
-1.1334 -0.376503 4.4365 150 152 119
-1.04921 -0.247562 4.41207 139 138 117
-0.823638 -0.219088 4.41677 174 179 134
-0.960345 -0.200927 4.42976 136 136 101
-0.495726 0.0370696 4.42426 162 144 128
-0.550366 0.135573 4.25447 170 132 118
-0.606202 0.126255 4.24023 185 160 146
-0.620177 0.133599 4.24166 118 99 78
-0.60004 0.135232 4.2095 152 124 92
-0.736666 0.157287 4.20014 38 24 10
-0.867827 0.144191 4.14528 114 74 64
-0.612009 0.227482 4.27864 76 49 42
-0.725576 0.23016 4.22084 39 21 19
-0.973195 0.445302 4.57572 150 115 104
-1.3488 -0.558647 4.42464 150 152 105
-1.29409 -0.514766 4.43382 140 136 96
-1.24667 -0.443235 4.41182 126 125 105
-1.20748 -0.439841 4.43168 194 192 147
-1.1404 -0.291445 4.38137 142 141 116
-1.08816 -0.287938 4.41129 132 132 112
-1.04965 -0.248401 4.41115 137 136 116
-0.526252 0.128493 4.29074 154 103 75
-0.584334 0.11987 4.2674 156 116 91
-0.596799 0.132194 4.24365 206 190 182
-1.02021 0.0658672 4.03075 116 120 85
-0.84973 0.119864 4.14411 74 54 46
-1.03649 0.16224 4.28275 106 56 36
-0.99916 0.182614 4.28517 106 61 42
-0.988739 0.216814 4.28664 148 122 116
-0.975593 0.227769 4.30471 52 21 16
-0.994713 0.260335 4.37526 40 10 5
-0.997259 0.422734 4.51535 122 82 70
-1.34928 -0.558465 4.42628 156 157 110
-1.34237 -0.531364 4.40996 98 100 78
-1.29536 -0.514903 4.42933 164 160 115
-1.32825 -0.501335 4.41237 86 86 58
-1.27715 -0.478371 4.38134 170 168 121
-1.22647 -0.437022 4.40069 98 98 60
-1.09869 -0.346632 4.44073 166 166 125
-0.577529 0.128927 4.22207 160 118 102
-0.54948 0.135998 4.24181 164 120 101
-0.605111 0.136414 4.21794 98 71 42
-0.846643 0.134551 4.14979 128 96 92
-0.726128 0.160888 4.18676 52 43 20
-0.856259 0.146772 4.1642 118 78 68
-0.998726 0.183599 4.28716 106 61 42
-0.73964 0.221932 4.21017 104 76 76
-1.00326 0.272116 4.36819 152 113 100
-1.00977 0.378015 4.67627 174 154 128
-0.626837 0.355492 4.0148 208 198 191
-0.975485 0.441511 4.56576 156 117 105
-0.952008 -0.528386 4.60995 150 152 122
-0.497181 0.0712084 4.39684 106 79 51
-0.561375 0.106679 4.29447 156 112 84
-0.609562 0.145155 4.21609 162 140 114
-1.02715 0.0619442 4.01889 106 110 74
-0.855157 0.131954 4.13814 106 74 66
-0.977603 0.46194 4.70193 63 32 22
-0.983965 0.43713 4.57301 70 26 15
-0.941223 -0.57633 4.64938 130 136 96
-0.957477 -0.525942 4.59865 148 150 120
-1.04202 -0.287043 4.4377 134 134 100
-0.407448 -0.108015 4.35745 147 128 92
-0.631956 0.115803 4.21469 146 117 102
-0.637191 0.13139 4.209 130 108 88
-0.598899 0.138915 4.23225 89 65 44
-0.609123 0.146947 4.20917 188 162 148
-0.845254 0.125408 4.15959 108 70 59
-0.852015 0.134406 4.14917 108 74 60
-1.03227 0.166321 4.29317 98 48 31
-0.991281 0.215749 4.29097 126 92 86
-1.01405 0.410813 4.66865 141 120 96
-1.34469 -0.538666 4.42256 90 89 73
-0.404993 -0.117515 4.37283 134 134 97
-0.580723 0.119379 4.29207 86 50 37
-0.59887 0.133343 4.22648 108 76 46
-0.860018 0.129663 4.13514 104 68 54
-1.02984 0.169064 4.2992 102 53 37
-1.03479 0.341003 4.65004 175 160 136
-0.99403 0.37954 4.54397 110 74 64
-0.978017 0.460696 4.68526 56 24 14
-0.553617 0.108344 4.26911 133 92 67
-0.619498 0.145025 4.19295 196 171 158
-0.70073 0.175868 4.18365 162 140 136
-1.01906 0.369087 4.66017 174 158 132
-1.44125 -0.64085 4.44571 128 118 76
-1.06432 -0.316372 4.44548 159 161 122
-1.22232 -0.218153 4.63799 143 142 92
-0.970429 -0.184456 4.41271 112 116 82
-0.735809 0.157232 4.1392 162 141 129
-1.05518 0.279333 4.61847 66 44 27
-1.19972 -0.429772 4.43522 117 118 90
-0.907451 -0.169724 4.43477 156 160 120
-0.742027 0.156292 4.17952 134 110 94
-0.731317 0.226303 4.22017 124 97 94
-0.983368 -0.185266 4.40831 120 121 92
-0.412921 -0.111916 4.36428 180 180 142
-0.549864 0.104886 4.27416 124 79 55
-0.762025 0.159042 4.17717 140 97 72
-0.71803 0.268302 4.24667 62 37 32
-0.703696 0.404894 4.35915 102 77 76
-0.898187 0.50407 4.47206 128 106 104
-0.501908 0.0602033 4.394 48 21 3
-0.967659 0.0264869 4.05015 147 154 131
-0.725002 0.222818 4.2163 69 41 38
-0.71999 0.268129 4.24751 64 38 33
-0.623709 0.133845 4.23281 136 108 88
-0.871841 0.135201 4.13983 132 97 89
-0.73412 0.224562 4.21887 104 70 68
-1.19634 -0.425332 4.42889 135 138 106
-1.01984 0.0643041 4.03089 109 114 78
-0.868588 0.136267 4.1484 102 68 58
-0.770663 0.15749 4.16979 149 106 82
-1.28617 -0.461371 4.40738 138 132 108
-1.19989 -0.440455 4.44825 142 144 98
-0.636792 0.127223 4.2305 96 82 62
-0.30775 -0.417513 4.05916 174 174 138
-1.44196 -0.638379 4.43833 126 119 76
-0.939775 -0.47796 4.5701 134 139 103
-0.912613 -0.388173 4.50552 120 130 88
-0.890943 -0.305832 4.45439 138 146 111
-0.857858 0.142151 4.14725 103 68 54
-1.44191 -0.627925 4.4259 104 96 55
-0.976798 -0.59885 4.65655 108 115 82
-1.34357 -0.530342 4.40986 84 84 62
-1.28888 -0.463968 4.40357 121 121 98
-1.09676 -0.296934 4.40909 106 108 84
-0.946982 0.213882 4.25734 140 98 89
-0.947143 0.520314 4.59305 74 34 20
-1.34431 -0.526474 4.41822 92 91 72
-0.741892 0.158554 4.19769 52 26 14
-0.847238 0.152008 4.16151 63 30 22
-1.32808 -0.502014 4.41206 80 78 56
-0.846687 0.199665 4.39324 191 148 128
-1.35149 -0.55714 4.42388 86 90 56
-0.628939 0.133244 4.23524 85 69 52
-1.3749 -0.581597 4.42288 138 140 92
-1.29982 -0.46673 4.41644 80 82 55
-0.596533 0.125025 4.27143 79 47 34
-1.26114 -0.461742 4.42285 108 112 88
-1.29719 -0.500218 4.41628 113 111 92
-0.975995 0.147678 4.2773 84 54 40
-1.1499 0.307718 3.79389 140 128 114
-0.736928 -0.179723 4.55066 156 162 130
-1.29702 -0.497571 4.4164 126 124 108
-0.684584 -0.159016 4.43409 134 142 106
-1.35192 -0.523663 4.39579 74 79 57
-0.698299 0.16741 4.29361 106 82 66
-0.960019 -0.519092 4.58262 144 150 115
-0.916493 -0.284311 4.46496 122 126 84
-0.483535 0.0316345 4.44802 122 100 72
-0.503765 0.0612665 4.38774 63 38 18
-0.543384 0.126723 4.268 144 94 74
-0.582 0.136292 4.21112 190 154 138
-1.03196 0.0802404 4.05802 42 38 17
-0.84638 0.115337 4.18523 68 36 20
-0.858374 0.111226 4.15307 135 110 94
-0.843531 0.134198 4.14824 50 20 16
-0.867929 0.132664 4.15529 58 28 16
-0.866641 0.137016 4.15019 155 120 112
-1.05998 0.116957 4.00301 178 154 128
-0.854043 0.161739 4.19096 80 46 36
-1.03187 0.164981 4.29943 112 59 34
-1.04967 0.168373 4.30236 160 114 94
-0.991315 0.190613 4.29067 158 138 130
-0.580993 0.255579 4.31384 192 180 169
-0.729496 0.228565 4.22443 135 112 110
-0.724739 0.232519 4.2255 48 26 24
-0.643075 0.253922 4.2619 70 42 38
-0.846681 0.222225 4.22158 40 16 12
-0.681806 0.22347 4.01715 102 104 84
-0.729501 0.266343 4.25026 95 68 63
-0.607696 0.296718 4.33071 150 126 120
-0.619105 0.356074 4.36241 68 39 36
-0.743598 0.347495 4.27985 70 38 36
-0.631392 0.393683 4.37067 136 102 98
-0.99526 0.373852 4.53504 160 128 119
-0.622755 0.407869 4.3964 61 32 29
-0.801661 0.402476 4.32116 151 112 112
-0.97544 0.443272 4.56706 160 128 118
-0.721027 0.509443 4.41178 149 120 118
-0.677765 0.533754 4.4656 81 42 40
-0.727613 0.514756 4.41534 76 46 42
-0.720975 0.519429 4.41963 142 117 115
-0.737205 0.573247 4.46263 166 136 134
-0.761311 0.570723 4.45661 84 53 48
-0.815024 0.564145 4.46431 146 99 86
-0.736566 0.582836 4.46703 151 118 116
-0.770273 0.578335 4.4552 132 108 105
-0.73654 0.589243 4.46244 123 93 92
-1.00263 -0.617569 4.69077 140 140 111
-0.957995 -0.603358 4.66186 140 143 106
-0.932578 -0.58323 4.66884 172 174 128
-1.09863 -0.346782 4.44186 150 149 108
-0.97811 -0.236007 4.4482 164 166 125
-0.953786 -0.161948 4.42038 136 135 104
-0.502662 0.0801128 4.28507 160 152 128
-0.530051 0.0928434 4.28096 159 118 104
-0.550477 0.097094 4.31737 52 28 8
-1.02602 0.0789387 4.02806 116 123 87
-0.849267 0.119634 4.14455 92 76 70
-0.869371 0.132158 4.15406 44 18 8
-0.866291 0.136234 4.15286 147 112 103
-0.865464 0.145296 4.15201 122 85 74
-0.869295 0.158113 4.17608 122 102 96
-1.04981 0.125755 3.97033 112 122 92
-1.06141 0.139427 4.00423 180 146 120
-0.688479 0.22183 4.23221 60 30 23
-0.622162 0.255588 4.28173 66 40 36
-0.97603 0.221543 4.30724 72 36 28
-0.98021 0.223534 4.31345 141 118 112
-0.720265 0.266428 4.25203 72 46 40
-0.723977 0.27228 4.27104 68 38 34
-0.964234 0.271709 4.33224 42 19 13
-0.598506 0.348444 4.36563 42 21 13
-0.627994 0.351859 4.35019 92 59 56
-1.0915 0.22174 3.89652 143 148 134
-0.619262 0.4004 4.39275 130 96 93
-0.725907 0.393459 4.32868 138 118 118
-0.724779 0.444952 4.36153 154 126 126
-0.726142 0.453552 4.37671 76 40 37
-0.714464 0.514729 4.42608 138 109 107
-0.718528 0.520399 4.42449 126 100 98
-0.736859 0.521406 4.41752 130 93 94
-0.736221 0.58307 4.47103 154 124 122
-1.48778 0.291177 3.97959 139 130 117
-0.981344 -0.663001 4.72342 167 166 122
-0.981931 -0.186228 4.41457 134 133 106
-0.533472 0.0910477 4.27248 164 119 106
-0.57328 0.115481 4.27183 110 73 50
-1.0046 0.0621863 4.04213 102 114 74
-0.836696 0.0961229 4.22191 88 78 64
-0.84906 0.119534 4.14443 92 76 70
-0.860955 0.129532 4.15786 144 106 98
-0.860022 0.135177 4.17015 53 26 17
-0.866877 0.135731 4.14988 147 112 103
-0.847264 0.13453 4.15314 131 100 93
-0.866012 0.158514 4.17951 90 63 54
-0.860341 0.163619 4.20481 59 33 24
-0.738503 0.202507 4.20571 62 33 29
-0.994115 0.190504 4.3 54 18 8
-1.07847 0.158718 3.97162 128 93 78
-0.669383 0.266838 4.28602 78 49 45
-1.03142 0.176947 3.94631 112 114 96
-0.729116 0.266653 4.23794 68 43 38
-1.0962 0.191949 3.93646 132 121 97
-0.625904 0.341896 4.34634 92 62 59
-1.02887 0.346316 4.65787 126 100 76
-0.701995 0.35514 4.3291 107 77 76
-0.737477 0.348254 4.29284 72 40 37
-0.998901 0.37165 4.52639 132 95 86
-0.783493 0.559776 4.43183 151 123 114
-0.734305 0.589389 4.4684 144 112 110
-0.958579 -0.604793 4.66304 166 170 129
-0.977278 -0.0181196 4.54237 34 26 8
-0.613312 0.122455 4.24508 134 113 100
-0.837607 0.115388 4.19211 134 109 91
-0.840899 0.131455 4.14616 31 16 9
-1.0648 0.11471 4.09099 70 32 22
-1.06482 0.137271 3.99604 184 146 122
-0.742164 0.202521 4.20268 76 46 41
-0.727569 0.222801 4.21436 74 50 48
-0.734497 0.229352 4.23114 45 20 16
-0.720234 0.230654 4.22825 40 23 19
-0.68423 0.259375 4.25729 86 56 53
-0.724243 0.267722 4.25703 138 110 108
-0.72311 0.267437 4.24737 67 42 36
-0.620542 0.290521 4.31059 139 113 107
-0.743517 0.270092 4.24531 49 27 22
-0.697562 0.289925 4.26127 98 66 62
-0.762954 0.28677 4.24382 154 125 122
-0.728317 0.305096 4.27276 127 102 100
-1.01156 0.373833 4.67083 176 159 134
-0.714969 0.34915 4.30261 60 30 28
-1.09895 0.218402 3.88225 132 138 122
-0.995622 0.375091 4.53497 134 98 88
-0.747066 0.373796 4.2986 75 46 42
-0.723284 0.382134 4.32498 148 133 132
-0.730913 0.399763 4.33743 64 34 31
-0.986167 0.433696 4.53648 156 124 114
-0.716992 0.456873 4.38123 144 123 121
-0.688319 0.519464 4.43333 94 56 53
-0.723566 0.515852 4.41581 134 107 104
-1.32631 -0.502507 4.41608 92 92 62
-0.965627 -0.0191383 4.58116 36 26 8
-0.573014 0.105084 4.27554 156 114 91
-0.70226 0.167194 4.25543 44 32 20
-0.750506 0.164193 4.20884 144 107 88
-0.79968 0.153811 4.12309 144 106 86
-1.069 0.113906 3.98842 191 156 136
-0.883939 0.151549 4.14013 88 56 48
-1.06615 0.134894 3.99786 193 153 129
-0.690469 0.221935 4.23239 86 57 50
-0.624233 0.257625 4.28624 68 41 38
-1.07967 0.15849 3.9698 146 112 97
-0.686128 0.26034 4.25975 98 68 64
-1.02515 0.249906 4.46884 52 16 7
-0.725363 0.268037 4.25703 115 85 83
-0.693629 0.292912 4.27003 94 62 60
-0.959147 0.406306 4.67315 94 46 34
-0.996007 0.376453 4.53594 130 96 87
-0.739255 0.394448 4.32443 76 43 40
-0.718447 0.516791 4.42483 114 86 83
-0.736353 0.519139 4.43155 140 104 104
-0.73215 0.562216 4.4439 94 56 55
-0.763084 0.568137 4.45238 102 72 64
-0.95818 -0.603776 4.66724 136 140 104
-0.513536 0.0771925 4.26383 154 157 122
-0.558981 0.0893713 4.31003 64 42 22
-0.578832 0.102179 4.26449 158 118 95
-0.543835 0.111197 4.28307 114 76 50
-1.04521 0.083978 4.03628 104 94 80
-0.947953 0.110294 4.09376 98 84 72
-0.840654 0.131013 4.14804 33 15 9
-0.747534 0.155798 4.16185 68 54 38
-0.774678 0.161862 4.1763 174 135 114
-0.984409 0.142134 4.03626 164 142 122
-0.731932 0.20964 4.23052 51 24 16
-0.727535 0.300551 4.25409 52 29 22
-1.03726 0.341011 4.63179 143 122 96
-0.702962 0.352255 4.31734 48 20 16
-0.762037 0.507295 4.39524 141 103 104
-1.48744 0.288237 3.97717 118 110 90
-1.27589 -0.201415 4.64819 85 74 38
-0.973883 -0.0217552 4.57899 37 22 8
-1.01334 0.0246065 4.10831 50 51 35
-0.688001 0.224545 4.2435 70 42 36
-0.749963 0.228593 4.22127 68 35 30
-1.02039 0.254281 4.49066 60 26 12
-0.942313 0.502722 4.36089 78 36 28
-0.613921 0.121079 4.17859 180 146 127
-1.05974 0.105124 4.02049 84 45 32
-1.07221 0.114625 3.98878 192 154 134
-0.689545 0.259149 4.2616 116 86 83
-0.698125 0.347298 4.32117 125 90 86
-0.943974 -0.206455 4.4535 148 152 110
-0.893416 0.513995 4.48302 129 106 106
-0.734286 0.582195 4.47078 126 94 91
-0.587867 0.104899 4.25425 158 116 94
-0.568725 0.14131 4.22892 156 120 104
-0.915416 0.43677 4.44016 145 108 104
-0.76819 0.585175 4.51839 97 56 50
-0.55914 0.142967 4.24685 126 91 76
-0.725593 0.452599 4.36775 144 116 114
-0.673971 0.107159 4.19511 46 36 20
-0.690992 0.527362 4.44527 78 40 39
-0.736151 0.585279 4.47691 137 109 106
-1.06088 0.113249 4.02277 132 89 70
-0.988498 0.0954564 3.97836 22 11 11
-0.991263 0.125462 4.00413 118 77 60
-1.29375 -0.49677 4.41657 120 120 98
-0.786957 0.128899 4.46725 97 91 66
-0.737285 0.203528 4.20818 85 52 46
-0.639418 0.213854 4.01094 169 166 145
-0.734035 0.157364 4.15655 102 88 78
-0.729893 0.304071 4.26958 136 113 110
-0.842423 0.129241 4.16789 100 68 58
-0.962818 0.298555 4.34592 140 114 108
-0.936603 0.380083 4.40089 144 126 124
-0.490287 0.0301584 4.42859 117 94 80
-0.537359 0.0918041 4.27038 160 116 101
-0.717985 0.532566 4.45229 118 83 83
-1.27481 -0.204205 4.63858 135 128 86
-0.930462 0.0449691 3.82097 64 50 26
-0.9632 0.231271 4.3712 78 36 28
-0.300388 -0.424001 4.05961 173 177 132
-0.86795 0.260997 4.19814 62 29 24
-0.771519 0.663768 4.68631 98 79 60
-0.104135 0.975776 6.78545 125 98 92
-1.3489 -0.557796 4.42418 98 100 56
-0.973233 -0.62929 4.67706 116 116 69
-1.34244 -0.525031 4.4093 109 110 90
-0.84398 -0.316634 4.46808 152 153 108
-0.598411 -0.20372 4.21195 96 100 81
-0.958217 -0.200273 4.43514 96 99 66
-0.434387 -0.118548 4.4062 128 136 98
-0.702157 -0.10041 4.29 112 115 102
-0.885187 -0.0874529 4.20379 144 147 118
-0.909622 -0.0641987 4.15934 132 136 113
-0.475182 0.0534126 4.4115 152 127 94
-0.754117 0.0292736 4.42936 90 88 80
-0.774248 0.0353664 4.43415 126 126 114
-0.546838 0.0719963 4.3244 50 28 12
-0.548358 0.0745003 4.28735 186 156 136
-0.543558 0.0881771 4.25364 144 97 82
-0.57718 0.112311 4.26532 86 48 22
-1.0067 0.0626067 4.03687 92 102 64
-0.618384 0.115484 4.23491 90 64 56
-0.552089 0.127146 4.25165 113 71 50
-0.837684 0.0969464 4.22203 80 62 48
-0.539942 0.136652 4.27121 176 145 130
-0.554057 0.143415 4.25376 98 65 49
-0.859977 0.141609 4.14415 96 62 49
-1.05359 0.115508 4.01604 132 111 80
-0.892147 0.182523 4.207 77 30 8
-0.851187 0.185456 4.22227 71 34 20
-0.731727 0.226811 4.23021 41 18 14
-0.631362 0.251431 4.26046 44 19 15
-0.680769 0.25916 4.25979 60 32 28
-1.02927 0.177631 3.95414 84 88 68
-1.03103 0.312226 4.64417 75 52 34
-0.843439 0.29402 4.26792 123 100 92
-0.838892 0.329049 4.29005 128 101 96
-0.838976 0.334343 4.29076 126 101 95
-0.607951 0.397616 4.39462 68 34 28
-0.727148 0.377906 4.3154 127 106 104
-0.786715 0.401789 4.32394 124 82 78
-0.825664 0.408582 4.31847 112 67 60
-0.718111 0.45108 4.37647 126 98 98
-0.815588 0.495074 4.39773 110 79 72
-0.812431 0.550242 4.44308 74 30 22
-0.766973 0.568867 4.45128 116 80 76
-0.759774 0.571242 4.45395 64 30 26
-0.806023 0.577966 4.44628 102 66 54
-0.98359 -0.659798 4.7156 130 131 86
-0.970399 -0.632721 4.68902 126 126 81
-1.32026 -0.540308 4.44399 113 114 76
-1.29534 -0.513738 4.42772 132 132 82
-1.32886 -0.503504 4.41504 62 60 30
-0.9511 -0.527298 4.61345 109 114 82
-1.20572 -0.442339 4.4461 139 140 93
-1.20122 -0.434003 4.42856 82 88 47
-0.61443 -0.186754 4.22901 84 90 72
-0.626617 -0.160972 4.27803 100 104 90
-0.75693 -0.048713 4.3253 98 102 90
-0.985404 -0.0303174 4.60746 124 114 90
-0.503978 0.0419686 4.4082 59 33 14
-0.466457 0.0469022 4.42705 65 36 7
-0.776164 0.0368539 4.43455 118 118 108
-0.54567 0.070906 4.27656 87 47 18
-0.743572 0.0620036 4.45989 13 8 2
-0.578429 0.105654 4.26237 145 100 77
-0.990853 0.0613525 4.0153 102 112 85
-0.539991 0.1378 4.27128 176 145 130
-0.557793 0.146748 4.24897 114 80 62
-1.05553 0.10725 4.01271 50 21 6
-0.731988 0.15928 4.14143 133 112 104
-0.731995 0.162542 4.12185 121 100 92
-0.651045 0.177945 4.04924 162 162 146
-0.680732 0.217736 4.22759 72 39 36
-0.845029 0.222141 4.22137 28 7 4
-0.769867 0.282207 4.22826 102 72 68
-0.729105 0.301295 4.26874 122 99 98
-1.03292 0.34539 4.64649 112 88 64
-0.838578 0.328933 4.29065 113 84 78
-0.728998 0.345498 4.29413 104 74 70
-0.716932 0.349154 4.30434 38 20 18
-0.726569 0.377632 4.31742 120 98 96
-0.733267 0.379426 4.32155 54 26 21
-0.795299 0.406414 4.33506 113 75 72
-0.954626 0.513919 4.54161 100 73 44
-0.799838 0.554723 4.45656 112 74 68
-0.748721 0.566667 4.4532 74 38 34
-0.766612 0.573978 4.46762 103 67 64
-0.806945 0.571803 4.4721 90 44 30
-0.807315 0.57828 4.44866 96 59 46
-0.97311 -0.630317 4.67723 142 141 96
-0.938947 -0.208448 4.47145 141 146 97
-0.98469 0.0626257 4.0293 114 124 98
-0.849927 0.132882 4.14482 101 71 67
-0.843368 0.132806 4.14351 18 4 2
-0.732821 0.158126 4.17323 30 21 6
-0.862693 0.156251 4.16241 42 15 8
-0.985554 0.131348 4.03443 134 104 81
-0.648853 0.181124 4.045 110 112 89
-0.73725 0.231709 4.22392 26 8 6
-1.03983 0.291853 4.60905 132 110 91
-0.72718 0.304572 4.27888 89 62 62
-0.628569 0.405164 4.38758 49 20 16
-0.725156 0.385462 4.33996 52 24 20
-0.943654 0.522009 4.629 112 73 58
-0.781936 0.508257 4.47351 99 63 58
-0.938376 0.534478 4.63923 78 38 22
-0.961681 0.502021 4.5343 73 30 18
-0.759161 0.570777 4.45729 66 29 25
-0.817016 0.561648 4.46146 122 76 60
-0.767169 0.571649 4.46564 115 78 75
-0.80592 0.57191 4.47249 86 40 26
-1.19996 -0.437086 4.43739 111 116 69
-1.01444 -0.214316 4.41199 104 102 79
-0.70577 -0.102741 4.2815 74 77 62
-0.886744 -0.0626486 4.2106 74 78 57
-0.990805 -0.0288641 4.5852 156 146 122
-0.777188 0.0102739 4.40522 119 120 110
-0.562698 0.0668603 4.24431 86 42 15
-0.750867 0.0602381 4.43158 12 8 2
-0.502453 0.0798454 4.28643 127 120 95
-0.542162 0.0901538 4.25767 128 80 64
-0.559825 0.0932664 4.30027 40 19 8
-0.983875 0.0612976 4.02894 106 116 90
-0.567382 0.131476 4.22991 142 107 94
-0.848778 0.139061 4.15561 102 68 60
-1.04641 0.114812 4.06056 48 17 6
-1.05494 0.116578 4.01787 154 119 92
-0.843463 0.161984 4.20703 44 16 10
-0.699226 0.213615 4.19708 62 31 28
-0.622653 0.28872 4.30339 110 84 80
-0.719394 0.306799 4.27149 43 22 18
-0.843638 0.291366 4.26774 96 68 61
-0.839031 0.330835 4.29094 116 90 84
-0.741285 0.377275 4.30891 56 27 22
-0.622002 0.364797 4.02276 67 44 28
-0.801573 0.488857 4.40938 78 27 22
-0.942886 0.528052 4.62386 88 50 34
-0.804849 0.553223 4.4437 124 90 86
-0.797282 0.555722 4.44197 70 28 24
-0.752792 0.564096 4.43743 124 90 86
-0.819327 0.563871 4.46414 120 74 58
-0.761248 0.56943 4.45223 64 30 26
-0.734039 0.583315 4.46613 90 59 53
-0.80692 0.57975 4.45174 97 60 46
-0.953828 -0.608339 4.67409 151 154 108
-1.20371 -0.433518 4.42311 106 110 64
-0.477599 0.044126 4.41074 68 41 12
-0.514319 0.0576489 4.37552 36 16 4
-0.744229 0.0510049 4.47552 79 77 65
-0.794342 0.0495052 4.46384 104 106 89
-0.743877 0.0599037 4.45657 17 12 8
-0.501224 0.0790892 4.28565 126 122 96
-0.57434 0.0889356 4.27789 38 19 8
-0.539143 0.0928033 4.26727 146 102 86
-0.673998 0.0995837 4.254 53 48 35
-0.866103 0.128655 4.15208 77 47 36
-1.00626 0.104878 4.00511 101 110 83
-0.664398 0.161131 4.0661 44 46 24
-0.859468 0.161318 4.21698 42 14 10
-0.642434 0.184633 4.0588 82 86 62
-0.721746 0.229839 4.22314 16 8 4
-0.741406 0.229963 4.22884 34 14 10
-0.729879 0.301324 4.26811 108 82 82
-0.842218 0.291709 4.27133 107 80 73
-0.838779 0.331808 4.29305 113 87 81
-0.61914 0.459747 4.42947 84 48 41
-0.818066 0.489372 4.40186 88 56 48
-0.893077 0.510663 4.48832 121 92 90
-1.2316 -0.462741 4.42941 142 140 91
-1.2512 -0.421522 4.4293 62 66 38
-0.767048 0.0450174 4.41547 40 38 28
-0.760761 0.0556954 4.40502 14 9 6
-0.557912 0.0889432 4.30517 44 26 15
-0.844357 0.0969052 4.20863 65 46 31
-1.05797 0.106408 4.01657 50 18 8
-0.839081 0.16116 4.21295 46 19 13
-0.890019 0.185807 4.20898 85 38 15
-0.721366 0.229032 4.21896 18 8 5
-0.850884 0.250844 4.23941 100 75 70
-0.711893 0.348225 4.30769 38 18 16
-0.727028 0.386534 4.33839 57 28 22
-0.82964 0.42064 4.34304 104 79 74
-0.808945 0.49386 4.41701 101 70 64
-0.817296 0.570139 4.47963 149 101 84
-0.95036 -0.620052 4.70841 132 138 94
-1.22409 -0.451556 4.43109 140 139 94
-1.24729 -0.427339 4.45516 60 64 37
-1.0661 -0.320425 4.4632 126 130 90
-1.01932 0.147762 3.98512 37 46 28
-0.851313 0.252878 4.24783 48 18 11
-0.707846 0.331491 4.27509 63 34 28
-0.822952 0.426855 4.36538 86 56 50
-0.898269 0.507686 4.48236 107 70 66
-0.797155 0.551012 4.43197 71 26 22
-0.824434 0.566303 4.46887 147 100 84
-0.799375 -0.222407 4.4647 176 179 128
-0.85531 0.128131 4.14555 78 40 28
-0.81285 0.163021 4.1743 160 127 116
-1.07556 0.126155 3.98234 158 111 82
-1.04397 0.296059 4.62438 154 143 116
-0.995934 0.421921 4.73293 100 76 57
-0.607602 0.362528 4.05189 130 108 96
-0.604388 0.35834 4.00328 73 48 32
-0.908455 0.494856 4.44735 111 72 67
-0.809517 0.549355 4.39707 135 92 84
-1.06508 -0.315535 4.44547 104 106 62
-0.959461 -0.249614 4.22009 124 128 83
-0.573005 -0.227598 4.1961 92 98 79
-0.641487 -0.160458 4.24447 86 91 76
-0.64406 -0.157894 4.24676 101 104 92
-0.776221 0.179899 4.16797 132 89 74
-0.729844 0.298837 4.26476 130 110 107
-0.729531 0.306429 4.26845 127 106 103
-0.843225 0.293599 4.26958 121 96 90
-0.721277 0.520524 4.41914 120 94 94
-1.06344 -0.3163 4.45045 110 111 66
-0.478283 -0.0853263 4.45082 162 168 126
-1.17697 -0.259799 3.71553 120 124 75
-0.637887 0.238698 3.97837 146 143 124
-0.843024 0.293136 4.27089 114 87 82
-0.645068 0.523518 4.46581 86 55 50
-0.823237 0.482817 4.39675 80 30 19
-1.29835 -0.466821 4.41379 54 56 34
-0.718182 0.173143 4.13595 161 143 140
-0.732072 0.223777 4.21981 90 66 62
-0.825792 0.427389 4.35199 120 96 94
-1.06832 -0.315371 4.44649 89 93 54
-0.786628 0.00755774 4.4166 154 154 155
-0.729998 0.38581 4.31877 82 62 62
-0.824752 0.559146 4.45433 128 78 64
-0.763215 0.56991 4.45441 104 68 64
-1.09857 -0.349126 4.45253 128 128 84
-0.733372 0.223511 4.22178 72 45 41
-0.840635 0.331788 4.29068 102 76 71
-0.727997 0.448359 4.36137 101 76 76
-1.27554 -0.203159 4.64935 71 62 23
-0.858147 0.134292 4.16229 90 59 49
-0.992801 0.121061 4.00239 98 61 43
-0.745615 0.577507 4.47069 118 84 80
-1.10406 -0.172809 4.50747 135 134 84
-0.782445 0.00838906 4.41203 140 140 139
-1.26361 -0.489023 4.42914 107 104 58
-1.29683 -0.515556 4.4345 140 138 94
-0.679843 -0.0769294 4.37218 168 171 128
-0.983803 0.145384 4.31981 48 16 6
-1.26143 -0.444438 4.40964 90 90 68
-0.997148 0.188654 4.29183 46 12 4
-0.737812 0.23241 4.22319 24 8 5
-1.26512 -0.489643 4.43398 106 104 63
-0.857517 0.186995 4.22502 84 44 30
-1.2658 -0.489169 4.42698 119 117 72
-1.32546 -0.506482 4.42342 74 76 48
-0.730716 0.507193 4.38259 91 60 57
-0.906815 -0.148349 4.37277 158 162 113
-1.3481 -0.552651 4.40443 92 96 50
-0.939982 -0.57631 4.64693 116 121 76
-1.26406 -0.489035 4.42929 94 94 52
-0.547825 -0.249892 4.17748 73 80 54
-0.592404 -0.207996 4.21567 84 92 72
-0.613788 -0.186536 4.22687 76 84 66
-1.00919 -0.21026 4.41544 90 90 64
-0.984371 -0.185903 4.4077 84 88 58
-1.15594 -0.199983 4.61306 94 94 42
-0.955437 -0.161466 4.41488 84 88 56
-0.51976 -0.0854202 4.57553 142 141 106
-0.506557 -0.0868474 4.58205 148 150 118
-0.530898 -0.0695857 4.62943 149 146 108
-0.569141 -0.0508231 4.59897 154 148 114
-0.770952 -0.00128778 4.42502 69 76 65
-0.495572 0.0230236 4.47437 80 50 28
-0.477556 0.0376358 4.44898 159 135 108
-0.606649 0.120867 4.25824 32 8 0
-0.600511 0.133599 4.23785 152 124 114
-0.53551 0.172146 4.31052 93 68 56
-0.887409 0.134682 4.24857 94 66 57
-0.736518 0.164671 4.19246 70 42 23
-0.730959 0.223465 4.21849 110 86 82
-0.850972 0.218297 4.22308 86 53 48
-0.674949 0.259983 4.26759 56 26 22
-0.763498 0.285071 4.24083 98 67 63
-0.729868 0.299532 4.26337 121 99 97
-0.727826 0.376618 4.31297 122 100 99
-0.828327 0.373556 4.33168 104 64 56
-0.577478 0.530904 4.53655 87 51 43
-0.81052 0.481656 4.39173 68 23 16
-0.821577 0.482907 4.39775 70 25 16
-0.72217 0.50777 4.40922 127 98 95
-0.721777 0.520656 4.41841 122 94 92
-0.656878 0.560572 4.49266 85 54 51
-0.802364 0.554445 4.4564 121 85 76
-0.795818 0.563066 4.45568 75 32 24
-0.722282 0.581091 4.49221 122 88 82
-0.807241 0.571537 4.46803 81 36 21
-0.938816 -0.577879 4.65639 111 117 73
-1.30742 -0.503703 4.41443 106 105 90
-1.27141 -0.492726 4.42868 144 145 96
-1.26483 -0.48987 4.43262 85 85 49
-0.821084 -0.218684 4.42291 136 144 96
-1.22451 -0.218837 4.64431 104 103 52
-1.27697 -0.20181 4.64855 54 44 10
-0.412795 -0.104031 4.38497 54 35 5
-0.701214 -0.101317 4.29522 90 94 78
-0.493559 -0.0787886 4.60313 69 64 32
-0.475992 0.0378705 4.457 139 116 90
-0.536377 0.0794971 4.34114 162 136 124
-0.667004 0.114878 4.19327 20 10 1
-0.590437 0.129941 4.24827 74 44 27
-0.888486 0.126461 4.23638 38 16 6
-0.843622 0.143323 4.18143 102 68 58
-0.739456 0.1647 4.19055 80 47 26
-0.722921 0.162189 4.14996 100 82 68
-1.053 0.158793 3.91704 96 104 82
-0.847509 0.255705 4.24675 109 90 84
-0.729057 0.306315 4.27228 110 86 84
-0.732348 0.341556 4.27719 110 80 76
-0.733382 0.377198 4.318 58 26 20
-0.832004 0.368357 4.31832 96 53 46
-0.627193 0.349593 4.03296 96 81 70
-0.803823 0.400221 4.31194 110 66 61
-0.825626 0.417265 4.34815 106 76 72
-0.815911 0.482701 4.39316 111 74 64
-0.806195 0.549958 4.43852 118 82 73
-0.794254 0.561352 4.45864 68 25 18
-1.18033 0.322093 3.83758 93 84 66
-0.948481 -0.616199 4.70481 124 130 86
-0.942371 -0.574801 4.64418 107 114 70
-1.27094 -0.496499 4.4454 144 145 96
-1.26389 -0.48813 4.42642 90 90 51
-0.512876 -0.0816675 4.55584 76 64 36
-0.535272 -0.0704752 4.62009 150 161 116
-0.475432 0.0374427 4.45708 132 108 80
-0.780473 0.0344082 4.41998 108 108 99
-0.837634 0.0953624 4.21728 74 58 46
-0.670617 0.10984 4.19927 52 48 38
-0.743483 0.154369 4.09834 92 76 60
-0.739225 0.17959 4.177 105 70 56
-0.894996 0.182062 4.2001 85 38 16
-0.722242 0.230023 4.22682 30 16 13
-0.850528 0.249252 4.23389 107 84 78
-0.762195 0.286345 4.24582 83 52 48
-0.838371 0.330271 4.29104 101 72 66
-0.833059 0.367566 4.31586 94 51 44
-0.785273 0.4026 4.33017 108 65 59
-0.634152 0.354461 4.02233 93 72 58
-0.623847 0.356055 4.01587 164 152 144
-0.626171 0.460303 4.4321 114 81 78
-0.724107 0.452847 4.37026 114 85 84
-0.806775 0.496081 4.43632 90 50 40
-0.822984 0.539392 4.4106 68 24 12
-0.596651 -0.206965 4.21037 78 84 63
-0.619126 -0.184129 4.22006 59 68 49
-0.63599 -0.159925 4.26065 89 92 78
-0.70125 -0.102716 4.28817 90 95 81
-0.614205 0.135416 4.22549 66 41 22
-0.73934 0.157021 4.17738 95 74 62
-0.713323 0.176553 4.1422 152 133 130
-0.61615 0.463652 4.44114 60 29 24
-0.826669 0.418413 4.34547 114 88 86
-1.29838 -0.506082 4.42189 48 50 30
-1.26492 -0.489672 4.43098 114 115 70
-0.593787 -0.207542 4.22221 60 66 46
-0.41894 -0.101825 4.37847 45 27 2
-0.536908 0.0781073 4.34128 90 64 50
-0.848036 0.124808 4.14542 96 67 64
-0.728527 0.388355 4.32349 82 60 58
-0.826324 0.424484 4.35359 98 70 66
-0.820052 0.486795 4.38814 87 52 45
-1.17115 -0.402646 4.40574 112 113 66
-0.418336 -0.104106 4.37927 50 34 8
-0.520024 -0.0815156 4.5647 62 37 21
-0.612634 -0.0533383 4.4987 129 120 94
-0.563112 0.0177433 4.25743 62 38 16
-0.866156 0.161273 4.20546 46 16 8
-0.717355 0.268131 4.25323 33 14 10
-0.845578 0.291499 4.26936 76 49 42
-0.542041 0.488008 4.53153 72 40 30
-0.829619 0.484844 4.39627 64 19 11
-1.16828 -0.405836 4.43351 82 82 40
-0.78158 5.23385e-05 4.42757 120 120 121
-0.840793 0.153973 4.20199 39 12 6
-0.857035 0.169932 4.18418 160 132 128
-0.7217 0.340408 4.28261 52 27 24
-0.736387 0.583125 4.465 92 60 54
-0.440102 -0.122982 4.40747 150 164 120
-0.735586 -0.0554539 4.3148 64 52 38
-0.85012 0.248604 4.23823 80 53 48
-0.829247 0.420897 4.3546 79 33 26
-0.66855 0.535164 4.48316 75 38 38
-1.31853 -0.53084 4.42128 130 129 82
-1.06395 -0.315327 4.44305 104 106 66
-0.638874 -0.160917 4.24862 80 86 72
-0.459674 -0.0169468 4.26417 118 84 68
-0.887241 0.127224 4.24112 32 10 4
-0.627899 0.451375 4.41589 92 60 56
-0.812109 0.552838 4.44095 69 26 14
-0.596822 -0.20494 4.21419 71 77 58
-0.502421 -0.0874419 4.5936 136 134 106
-0.888115 0.133301 4.25111 94 64 54
-0.720942 0.45675 4.37988 115 88 88
-0.80901 0.481567 4.39306 86 38 28
-0.823586 0.479933 4.38973 95 43 32
-1.13758 -0.0822946 4.49502 90 61 36
-0.639287 0.527199 4.48196 86 52 51
-1.09831 -0.345846 4.4384 108 111 68
-0.890594 -0.301858 4.44339 104 112 75
-0.842754 0.292548 4.27268 89 62 56
-0.727264 0.450512 4.36569 74 40 39
-0.99864 0.15223 4.08322 123 100 74
-0.725252 0.447602 4.36698 116 80 80
-1.35035 -0.549288 4.39256 60 69 32
-0.857961 0.170657 4.18322 159 128 124
-0.794611 0.544691 4.41855 73 26 18
-1.32049 -0.53573 4.42605 103 104 62
-1.23063 -0.462226 4.43465 92 90 51
-0.482226 -0.085871 4.4388 103 115 78
-1.34968 -0.526729 4.41614 40 46 23
-0.39893 -0.120501 4.38477 130 132 90
-1.29417 -0.512247 4.42697 95 94 49
-0.858514 0.148687 4.31976 34 12 8
-0.663198 0.140294 4.15079 104 90 70
-1.29603 -0.467185 4.41592 47 48 24
-1.26657 -0.488693 4.42961 90 90 60
-1.14111 0.0575469 4.40987 122 101 84
-1.37486 -0.580282 4.41892 83 84 42
-1.16614 -0.407766 4.43258 104 105 62
-0.56084 -0.0526507 4.59892 147 138 108
-0.816356 -0.293503 4.23431 133 140 98
-1.2319 -0.462753 4.43798 108 106 60
-0.7277 0.163248 4.15407 107 86 72
-0.900244 -0.497446 4.59542 127 131 84
-0.88406 -0.450945 4.55909 113 120 74
-0.553544 -0.0526587 4.62143 146 128 100
-0.729873 0.343897 4.28805 106 77 72
-0.826566 0.417293 4.34749 122 96 95
-1.03411 -0.287654 4.44725 106 110 68
-0.836982 0.0955764 4.21966 74 58 45
-0.898194 0.504308 4.46326 101 73 70
-0.741347 0.176961 4.17227 138 102 87
-0.896669 0.502675 4.48036 108 69 62
-0.555285 0.103303 4.26314 113 66 41
-0.578394 0.163974 4.2481 140 111 96
-1.056 0.280756 4.58372 62 42 20
-0.564073 0.0541027 4.27212 41 18 4
-0.614731 0.131914 4.1946 79 46 22
-0.844927 -0.103448 4.2754 84 82 36
-0.586745 0.168815 4.21839 106 87 74
-0.535211 0.352026 4.43979 84 62 49
-0.580172 0.531411 4.53484 94 63 52
-0.49259 0.024467 4.35114 148 160 116
-1.04768 0.285231 4.64639 62 39 20
-0.552507 0.373478 4.43715 76 46 36
-0.632299 0.350929 4.02422 104 88 74
-0.847477 -0.19948 4.32199 149 158 106
-0.602435 0.132645 4.22395 66 36 20
-0.628091 0.218962 4.24456 50 35 24
-0.627419 0.352345 4.01233 160 150 140
-0.605577 0.115443 4.25114 45 19 10
-0.518285 0.194578 4.35127 127 116 102
-0.552859 0.347006 4.41392 85 49 38
-0.73493 0.507604 4.38363 98 69 65
-1.35041 -0.531738 4.4 50 52 30
-0.728918 0.158253 4.20968 48 32 20
-0.731372 0.158226 4.14667 74 62 44
-0.535351 0.353897 4.44882 84 52 39
-0.70274 0.580866 4.51443 68 32 28
-0.802088 0.0467105 4.42714 91 90 82
-0.583646 0.112397 4.29252 44 18 10
-1.29722 -0.507253 4.42137 51 52 28
-1.30024 -0.505229 4.42065 48 52 30
-1.2222 -0.443751 4.42923 51 55 23
-1.19956 -0.435968 4.43565 77 80 37
-1.21494 -0.41157 4.41962 70 72 51
-1.16686 -0.40719 4.43784 83 85 44
-0.523062 -0.272262 4.1516 78 86 62
-0.900348 -0.326734 4.46685 96 106 66
-0.571264 -0.227886 4.20171 84 92 70
-0.618509 -0.182682 4.23054 86 92 76
-0.640169 -0.15907 4.26227 92 97 84
-0.72324 -0.0775437 4.32251 94 92 76
-0.529415 -0.0649247 4.68139 76 44 20
-1.13757 -0.0821506 4.47885 78 56 30
-0.559075 -0.0559042 4.66713 126 110 98
-0.839344 0.00920553 4.40518 60 56 36
-0.965917 0.0245655 4.06163 112 122 93
-0.548828 0.119101 4.27698 104 60 37
-0.615884 0.128666 4.25114 56 28 16
-1.08591 0.11851 4.38234 83 44 16
-0.595799 0.136624 4.22708 83 52 29
-0.899538 0.135357 4.25653 30 6 0
-1.01261 0.104074 3.99302 110 118 92
-0.5935 0.158492 4.22602 126 98 90
-0.73283 0.15685 4.19262 118 99 88
-0.989535 0.122813 4.02859 131 97 70
-0.947001 0.214625 4.25803 160 114 103
-0.762658 0.286205 4.2447 116 83 77
-0.630174 0.453458 4.4156 126 97 94
-0.635559 0.459733 4.42816 58 27 25
-0.915113 0.448358 4.44513 114 88 84
-0.828832 0.435715 4.35753 54 14 6
-0.602871 0.539501 4.52342 101 73 70
-0.816331 0.481319 4.38885 125 95 92
-0.644297 0.522604 4.46628 69 36 33
-0.797692 0.566407 4.45163 80 36 24
-0.95037 -0.597836 4.67696 121 126 82
-1.23119 -0.461031 4.43121 108 107 63
-1.16714 -0.408289 4.44221 86 88 44
-0.821551 -0.312726 4.22522 116 120 72
-1.09749 -0.346966 4.44156 119 122 77
-0.889311 -0.302575 4.46158 103 110 76
-0.615903 -0.184519 4.23647 70 76 59
-0.509051 -0.0926027 4.58689 74 72 38
-0.727789 -0.0776049 4.3038 84 82 65
-0.557956 -0.0573455 4.66619 116 98 86
-0.842354 0.00669711 4.40101 61 59 38
-1.1299 0.0259038 4.35137 122 87 72
-0.831415 0.0966646 4.24451 72 58 48
-0.587561 0.149464 4.36754 66 50 32
-0.572015 0.168095 4.27287 166 138 128
-1.02627 0.126261 3.96279 94 102 80
-1.00267 0.140878 4.00366 156 116 91
-0.847431 0.18177 4.20008 104 69 56
-1.02313 0.152819 3.96243 54 58 39
-0.851536 0.2178 4.22531 75 38 32
-1.04968 0.160765 3.94035 100 107 86
-0.847685 0.249671 4.24344 100 74 70
-0.949451 0.25687 4.29524 94 48 40
-0.956772 0.29605 4.32282 45 14 8
-0.613304 0.336585 4.3589 97 66 64
-0.800128 0.402481 4.32312 109 62 56
-0.594738 0.522026 4.50699 104 68 62
-1.48772 0.289517 3.98556 107 94 77
-0.668924 0.556262 4.46777 105 74 69
-0.758981 0.585859 4.45484 133 96 88
-1.34279 -0.532883 4.4096 57 57 36
-1.29807 -0.499627 4.41945 81 85 62
-1.23163 -0.46276 4.43883 76 74 38
-1.20052 -0.439172 4.44858 98 100 54
-0.820481 -0.31348 4.23656 107 114 64
-0.616739 -0.1834 4.23134 76 81 64
-0.435856 -0.119581 4.4023 152 162 120
-0.700626 -0.101283 4.2997 80 84 69
-0.725436 -0.077574 4.31823 80 78 60
-0.780134 -0.00887373 4.39999 98 99 96
-0.949866 -0.00540274 4.09166 106 117 86
-1.1561 0.0418758 4.40747 148 132 98
-0.548741 0.100856 4.27274 122 76 52
-0.649109 0.124548 4.12446 87 60 44
-0.864469 0.128242 4.14826 90 58 46
-0.49311 0.190471 4.41107 106 86 74
-0.947111 0.21376 4.25718 134 88 76
-0.85155 0.217675 4.22523 88 51 45
-0.723099 0.231871 4.22297 24 8 4
-0.958436 0.300555 4.3513 110 81 72
-0.632759 0.455605 4.41428 110 80 78
-0.615976 0.46348 4.44206 42 15 10
-0.916019 0.446024 4.44714 120 93 88
-0.831093 0.436484 4.36705 54 12 6
-0.894365 0.507841 4.48099 116 87 82
-0.723772 0.583114 4.49274 114 74 70
-0.831205 0.577435 4.4794 103 56 39
