ply
format ascii 1.0
element vertex 1296
property float x
property float y
property float z
property uchar red
property uchar green
property uchar blue
end_header
-0.939224 0.769418 6.50722 182 188 190
-0.47579 1.29261 4.88898 251 252 248
1.47749 0.883 6.13039 100 90 40
-0.615696 0.628997 6.48179 8 100 155
-0.363183 0.25394 6.5137 22 46 86
0.921191 -0.762882 7.57132 142 150 194
0.866059 -1.15634 7.35237 72 60 2
0.899308 -1.156 7.35313 10 4 20
-0.47104 0.252917 6.50417 232 244 245
0.718687 0.495043 6.73795 148 180 208
0.980733 -1.125 7.39926 168 152 86
0.864297 -1.11605 7.37299 22 15 26
0.920214 -1.06882 7.4023 16 13 8
-0.13603 0.542774 6.55812 18 31 65
-0.815289 1.07577 5.28044 248 250 246
-0.64444 0.564481 6.42866 214 238 254
1.38609 0.890717 6.12982 53 54 16
-0.371412 0.602101 6.52637 214 252 254
-0.71558 0.628163 6.45089 164 236 249
-0.533148 1.24703 4.96995 218 218 216
1.49611 0.842551 6.20132 62 50 19
0.85013 0.471455 6.75492 182 230 250
-0.0959382 0.528405 6.53539 176 196 216
1.42901 0.900429 6.11647 121 47 32
0.913173 0.46777 6.75946 188 234 252
1.28336 0.827645 6.22146 151 150 114
0.865943 0.447593 6.73817 20 58 88
0.744242 0.431601 6.69223 201 246 255
-0.527294 0.604102 6.49089 81 144 178
-0.393386 1.25294 4.95354 48 46 44
1.43997 0.882044 6.12067 254 246 200
0.776927 -0.775614 7.56741 206 220 255
0.832143 -0.769096 7.56248 172 184 229
-0.565234 0.609125 6.48011 18 88 128
-0.730837 -0.868498 7.36186 95 90 81
0.856784 -0.759623 7.56575 17 24 81
0.96797 0.43176 6.74649 206 235 246
0.745624 -0.772589 7.62198 213 224 255
0.797659 -0.754383 7.56694 160 174 232
0.73557 0.391948 6.51677 202 238 252
0.732203 0.394182 6.65479 1 60 110
-0.594231 0.609931 6.46661 25 109 157
-0.293033 0.250015 6.51778 12 34 74
-0.313968 1.25569 4.96915 234 208 54
-0.335215 0.241289 6.52093 232 243 241
-0.258613 0.246305 6.52084 16 42 84
0.734858 -0.700516 7.62518 54 66 138
-0.565192 1.21658 5.01476 8 8 8
-0.247623 0.246126 6.52919 33 60 102
0.952967 0.393637 6.71878 201 224 236
-0.0672078 0.451923 6.49182 252 221 230
-0.945748 -0.784908 7.2495 140 140 127
0.985857 0.393238 6.73307 192 220 230
0.85794 -0.666072 7.61225 186 199 236
-0.179147 0.239314 6.51693 30 52 73
-0.241085 0.229022 6.53301 232 248 251
-0.737227 -0.767354 7.40905 1 0 0
-0.557282 1.21325 5.02007 16 12 10
-0.0889409 0.231602 6.55643 22 52 91
-0.113989 0.215732 6.58507 78 93 114
-0.599928 0.626645 6.4835 5 86 138
-1.10149 -0.699952 7.17839 227 226 210
-0.0438069 0.213798 6.59204 17 33 64
-0.89942 -0.695254 7.32782 6 4 2
0.82984 -0.0866208 7.93496 174 186 239
0.936583 -0.489106 7.72387 172 182 222
-0.688812 1.15126 5.13476 181 182 182
0.756021 -0.499092 7.86278 204 216 250
-1.08745 -0.412414 7.35132 1 3 2
-1.51742 -0.620778 18.3024 190 211 201
0.871395 -0.416322 7.75085 151 160 224
-1.09013 -0.401346 7.35108 170 187 172
-0.981322 -0.449075 7.39876 189 204 190
0.797065 -0.117943 7.91943 0 2 76
-0.637255 1.18301 5.08113 250 252 250
-0.260799 1.22927 5.00024 240 214 35
-0.548754 0.529869 6.42526 214 239 251
1.48204 0.937597 6.05391 242 246 213
-0.640485 -0.753105 7.50422 4 5 2
0.899216 -0.0897036 7.93102 36 48 98
-0.678514 0.566475 6.42205 74 83 122
0.106434 1.02325 5.4645 73 96 126
-0.65933 -0.897706 7.40135 135 131 116
1.13262 0.572071 6.89696 155 28 34
0.714688 0.411176 6.67053 186 236 254
-0.379721 0.608909 6.5263 0 86 139
1.33322 0.954849 6.15564 6 22 7
-0.902052 0.751459 6.48612 225 230 230
-0.397614 0.694216 6.59228 86 102 117
1.472 0.844637 6.17347 240 228 173
-0.644985 0.562962 6.40281 214 238 251
-0.301263 0.544606 6.49655 4 12 56
-0.488114 0.513867 6.44381 0 4 41
-0.242526 0.525279 6.50406 223 240 252
-0.326762 0.512767 6.47039 158 180 208
-0.157378 0.520839 6.52398 215 240 254
-0.206035 0.507911 6.48984 5 20 66
-0.308556 0.475044 6.45048 3 16 58
-0.490071 1.289 4.90375 246 246 243
-0.291379 0.467839 6.44818 215 243 255
-0.128711 0.486312 6.50714 18 40 90
-0.190328 0.47792 6.48477 1 16 57
-0.0486256 0.481885 6.5265 7 20 60
0.796108 0.473834 6.72244 196 219 232
0.765268 0.446671 6.70745 176 221 237
-0.456711 0.271689 6.46423 30 72 117
1.14449 0.839179 6.28107 228 236 242
-0.406648 1.2627 4.93677 240 243 239
0.8679 -1.1549 7.35207 26 18 7
0.868486 -1.11797 7.37241 14 7 32
-0.179791 0.241539 6.51863 10 33 62
0.921984 -1.07073 7.40196 10 8 13
-0.0995118 0.236866 6.54829 230 244 247
-0.114103 0.232506 6.55157 42 72 112
-0.0715982 0.232007 6.52188 218 230 232
-0.0421851 0.227818 6.58301 34 59 103
-0.113635 0.215322 6.57537 198 210 218
-0.630314 -0.906772 7.40511 10 8 4
0.820219 -0.771575 7.56683 2 6 78
0.805173 -0.768845 7.567 223 236 254
-0.778791 -0.850405 7.33145 2 1 0
-0.714148 -0.851087 7.37853 190 187 174
-0.699289 -0.849729 7.40253 12 10 9
-0.773642 1.09022 5.24267 43 39 38
0.729247 -0.121223 7.94236 173 182 246
0.823958 -0.11648 7.98485 172 186 240
-0.719162 -0.761486 7.42882 200 198 180
-0.789129 -0.745409 7.38364 170 168 158
1.42229 0.900492 6.11096 96 20 8
-0.86849 -0.737476 7.31728 212 209 196
1.23691 0.905087 6.20554 246 251 250
0.675037 -0.627211 7.75546 230 230 118
0.697348 -0.619524 7.6824 217 230 255
-0.73026 1.13869 5.16109 251 254 252
0.830765 -0.59136 7.62857 182 196 247
-0.856461 -0.708523 7.34585 18 20 16
0.875603 -0.58238 7.67982 180 193 238
0.891412 -0.40748 7.75544 178 192 234
-0.480032 1.18754 5.05375 242 245 240
0.907783 -0.502677 7.71559 174 189 232
0.94013 -0.488885 7.7198 158 170 204
1.47857 0.885551 6.15883 74 32 12
-0.548666 0.532382 6.41863 212 246 254
0.956156 0.363108 6.72054 8 104 155
0.946115 0.363019 6.67049 198 230 244
-0.242776 1.24814 5.01121 150 192 215
0.712538 0.44795 6.69337 54 118 153
-0.595552 0.270652 6.45711 44 72 102
0.83117 -0.691942 7.60296 64 67 154
1.46803 0.862679 6.12905 102 53 28
1.36495 0.88656 6.13511 52 79 40
-0.496696 1.34844 4.84736 18 20 22
0.97074 0.463484 6.77302 202 228 242
0.865906 -0.101858 7.91892 145 150 206
1.43439 0.848396 6.17082 251 248 196
-0.948821 -0.782043 7.24614 132 130 116
0.952557 0.446705 6.75321 4 77 124
-0.983418 -0.44898 7.39835 196 212 196
0.714178 0.408357 6.66184 194 228 240
-0.647983 -0.77786 7.48052 188 185 172
-1.08362 -0.425072 7.34275 125 140 128
0.873037 0.402979 6.76495 95 138 168
0.409925 0.342484 6.54518 0 4 38
-0.652518 0.61238 6.45045 47 118 156
-0.495859 0.601981 6.50142 16 86 132
0.857215 -0.744858 7.56943 164 176 224
-0.569367 0.269271 6.48224 240 252 254
-0.565635 0.607485 6.47094 4 82 129
-1.00271 -0.716462 7.23559 162 160 149
0.100903 1.03038 5.45288 30 52 107
0.384133 1.08999 5.48196 238 238 221
1.27831 0.849453 6.20645 50 92 68
-0.0823923 0.225668 6.55718 148 168 193
-0.0934029 0.208314 6.56358 38 64 106
-0.229124 0.505771 6.48498 226 246 255
-0.294735 0.500469 6.48023 2 16 69
-0.275016 0.513142 6.48115 192 208 220
-0.372143 0.506636 6.45482 21 26 66
-0.184285 0.531712 6.51782 16 42 86
0.747912 -1.44866 7.38552 240 252 255
-0.573178 1.21986 5.00681 238 240 239
-0.352912 0.547269 6.494 6 18 64
-0.386592 0.55329 6.50756 4 23 75
-0.0647618 0.455314 6.48457 224 218 224
-0.510827 0.560741 6.46316 14 34 80
-0.564139 0.581586 6.46793 198 215 224
0.691615 -0.50616 7.73959 197 214 246
-0.938978 -0.67998 7.28956 20 20 18
0.700893 -0.618655 7.68382 221 236 255
-0.769857 -0.730448 7.40035 21 20 20
-0.734119 -0.76506 7.40347 98 98 88
-0.566063 1.16242 5.11745 222 224 222
-0.780677 -0.851467 7.33791 12 10 9
0.734884 -0.79093 7.576 226 236 255
-0.702951 -0.878093 7.37514 4 3 2
0.804484 -0.767875 7.5623 224 236 254
0.945642 -0.765097 7.58582 100 106 141
0.719597 -0.780188 7.59156 206 214 255
0.768166 -0.760818 7.57204 139 156 213
-0.496394 1.34582 4.84806 36 36 34
-0.280514 0.472705 6.45368 8 30 80
-0.805851 -0.841932 7.31844 12 10 8
-0.49149 1.27007 4.92263 244 246 243
-0.177842 0.225869 6.57392 56 82 123
-1.09109 -0.777633 7.15237 66 66 55
-0.453349 -1.05424 7.50121 94 36 28
-1.02842 -0.762027 7.19795 130 128 116
-0.640098 -0.753516 7.50273 6 8 4
-0.870758 -0.734498 7.32284 183 178 162
-1.03106 -0.730511 7.22339 130 125 112
0.872284 -0.598777 7.64786 135 144 208
0.647835 -1.0698 7.48536 15 18 76
0.596754 -1.3138 7.4054 110 102 39
-0.544308 0.514784 6.38625 1 73 132
-1.1047 -0.702344 7.17873 170 168 152
0.606514 -1.08736 7.49174 26 24 114
-0.0457208 0.51719 6.53827 209 226 235
0.87475 0.367627 6.66282 210 238 250
0.980354 -1.06561 7.42994 208 187 48
-0.609743 -0.676072 7.57588 195 192 173
-0.331781 0.228054 6.42342 126 150 169
-1.09334 -0.678017 7.20184 12 12 8
0.92022 -1.07054 7.39771 20 16 20
-1.05288 -0.647807 7.24971 10 8 7
1.31265 0.814513 6.25065 206 198 142
-0.676884 0.570229 6.43203 204 220 236
-0.256403 0.24456 6.53898 36 64 109
1.13267 0.572979 6.90218 173 36 42
-0.291217 0.248007 6.51152 56 84 129
1.43343 0.860256 6.17495 68 70 26
1.27115 0.846119 6.20119 52 94 70
1.45448 0.866932 6.12813 252 242 191
-0.317019 0.256467 6.53539 37 64 105
-1.15788 -0.516128 7.23766 203 204 188
0.766922 0.400358 6.67722 2 90 144
0.967528 0.461791 6.76222 192 218 230
0.859647 0.437668 6.56482 104 170 208
1.39388 0.580196 6.97154 222 230 231
0.86472 -0.0818805 7.93022 160 167 222
1.4676 0.886402 6.14601 122 54 34
0.865351 -0.102566 7.93716 120 126 189
0.820254 -0.114667 7.90918 174 189 242
0.761318 0.449818 6.71348 210 235 248
-0.594853 0.271342 6.45815 22 54 94
-0.555455 0.244435 6.51295 234 246 248
0.32105 0.164666 6.73523 204 54 45
1.31687 0.954419 6.16276 210 222 194
0.966176 0.436673 6.75496 178 206 221
-1.11842 -0.410537 7.31771 174 192 178
-1.12082 -0.399363 7.32906 126 140 130
0.713517 -0.433996 7.80327 57 66 148
1.36873 0.963984 6.13787 236 242 220
1.21471 0.49727 6.86655 161 34 40
0.649169 0.503185 6.71614 130 194 143
1.49301 0.841012 6.19867 67 54 18
0.817087 -1.03607 7.43208 18 13 85
-0.969487 -0.259629 7.51413 92 104 96
-0.277671 0.514853 6.48143 199 217 226
-0.820283 1.07793 5.29049 249 251 247
0.629575 -1.30464 7.42192 42 42 20
-0.737842 -0.804326 7.3903 12 10 9
-0.398648 0.522143 6.42417 192 208 219
-0.557699 0.576073 6.43963 38 56 94
-0.184053 0.531081 6.52162 4 18 64
-0.461412 0.556818 6.45837 12 32 80
-0.089347 0.232522 6.54172 166 182 189
-0.656364 0.534383 6.40549 150 178 206
-0.163514 0.521105 6.52274 172 196 220
-0.602154 -1.01795 7.39089 154 164 144
-0.342518 0.246885 6.49033 222 234 234
0.717123 -0.704859 7.65678 228 242 255
-0.351753 0.544645 6.49482 4 12 50
-0.49843 0.511065 6.41095 0 1 39
-1.00415 -0.717741 7.24099 114 112 106
0.69464 -0.595778 7.70299 224 238 254
-0.315074 1.2534 4.9732 247 218 31
0.826054 -1.24141 7.29918 18 14 64
1.15309 0.840729 6.30656 156 160 170
0.838815 -1.22809 7.31372 22 18 94
-0.875524 -0.733101 7.32383 175 169 156
-1.03187 -0.689415 7.23485 140 134 119
0.71208 0.398644 6.64676 76 144 187
0.396892 0.354635 6.54346 244 210 218
-0.677034 0.571106 6.45595 114 127 162
-1.13048 -0.6213 7.21073 14 16 14
0.868167 -0.100216 7.92076 124 131 192
-0.709489 0.575887 6.41709 38 53 88
0.404226 0.341574 6.54078 0 4 34
0.739707 -0.324552 7.8205 196 214 254
1.13348 0.566179 6.90184 172 32 38
0.773645 -1.08745 7.40132 171 157 104
1.44793 0.849784 6.12468 72 58 25
-0.190084 0.240701 6.48479 120 136 154
0.948787 -0.767812 7.59878 94 104 142
1.32472 0.941926 6.16011 234 240 214
0.857417 0.4714 6.75897 162 203 227
1.00047 0.399071 6.82099 194 223 238
1.33267 0.954577 6.15316 7 24 7
-0.295816 0.222003 6.56257 146 166 188
-0.621432 -0.695584 7.57065 88 82 63
-0.299017 0.54854 6.50504 26 34 61
-0.269175 0.541244 6.51197 80 97 116
-0.606252 0.572501 6.44253 3 10 54
0.817475 -0.107389 7.91106 7 13 62
-0.194147 0.528791 6.51975 87 105 125
-0.208199 0.527112 6.51257 12 32 56
0.840513 0.474231 6.74718 178 221 246
-0.297378 0.471008 6.45114 9 27 55
0.724916 -0.484798 7.73531 182 197 255
0.901271 0.529241 6.80528 10 26 44
-0.73216 -0.771969 7.41424 34 32 28
0.741458 -0.694661 7.62278 204 222 252
-0.776295 -0.853164 7.33732 2 0 0
0.756856 -0.768409 7.5727 44 58 115
-0.852683 -0.288526 7.58248 0 4 0
0.979594 0.526294 6.82378 94 112 124
-0.167893 0.526862 6.52021 193 217 237
0.929949 0.397173 6.71149 188 241 255
0.934063 0.364355 6.68713 191 244 255
0.939469 0.536166 6.82473 184 203 221
-0.0679983 0.669049 6.65504 218 232 242
0.797534 -0.109922 7.91927 4 12 74
-1.14972 -0.865904 7.05825 139 160 141
-0.902217 -0.309536 7.53619 0 7 2
0.913404 -0.749055 7.57404 157 162 212
1.47848 0.874107 6.14064 68 27 4
1.46573 0.879727 6.1289 53 21 0
-1.10537 -0.396482 7.34193 144 160 148
-0.326494 0.687966 6.60567 16 33 54
-1.12043 -0.415669 7.32547 166 184 172
-0.462169 0.68686 6.56647 28 46 62
-0.555321 0.568133 6.44749 164 206 247
-0.838148 -0.470946 7.49127 15 22 16
0.947698 0.456015 6.75926 6 53 89
-0.745063 -0.517511 7.54089 158 170 159
0.769863 0.454736 6.71627 30 62 94
0.732507 -0.487666 7.73171 20 39 108
0.844908 -0.572086 7.66398 178 192 244
0.782012 0.447687 6.71218 180 230 246
0.79621 -0.598843 7.65323 10 20 96
0.72211 -0.611871 7.68985 113 142 197
-0.288677 0.591702 6.54113 17 84 125
0.767931 -0.326586 7.80977 4 13 88
1.34313 0.951115 6.14304 228 238 216
-0.170314 0.852617 5.78352 23 68 108
-0.0763814 0.299757 6.44553 188 194 198
0.0382278 0.65069 6.67628 38 59 78
1.30029 0.815583 6.24781 186 182 150
0.734795 0.442011 6.69667 20 68 96
0.769956 -0.576575 7.65721 184 200 255
0.100785 0.652923 6.69517 184 202 220
1.41991 0.861383 6.15876 236 235 186
-0.0110946 0.286373 6.4579 122 134 135
-0.324979 0.322236 6.38716 106 114 122
-0.24617 0.30848 6.40392 226 236 240
-0.397844 0.612499 6.53017 6 76 118
-0.352877 0.688825 6.63518 182 199 216
0.833493 -0.502801 7.70414 1 2 74
0.941798 0.530452 6.82134 32 54 68
-0.679956 0.566241 6.41598 82 94 138
0.86135 -0.471568 7.71846 5 12 72
0.732176 0.494471 6.72856 174 214 244
-0.191086 0.6794 6.63293 220 232 246
0.855633 -0.767258 7.54445 160 171 224
-0.148461 0.491677 6.50617 152 174 202
0.909009 0.397229 6.70473 172 228 248
1.34955 0.962548 6.14069 20 28 10
0.867269 -0.601425 7.65168 164 170 236
0.987515 0.393023 6.72143 192 234 248
0.817427 -0.761799 7.56837 42 58 108
0.820683 0.55239 6.8037 106 126 145
-0.599146 0.706576 6.55093 192 205 222
1.51238 0.947566 6.0377 217 240 216
-0.151288 0.908023 5.67256 45 66 105
0.735707 -0.696246 7.62445 6 12 101
-0.728062 0.638952 6.45422 12 84 125
-0.549559 0.697424 6.55512 52 68 82
1.46583 0.853302 6.17184 104 95 50
-0.845626 -0.466153 7.49181 162 174 162
0.237659 1.28594 5.45385 11 6 0
-0.318992 0.319401 6.43383 126 136 144
0.977809 0.461837 6.77223 180 233 252
-0.211244 0.310301 6.4118 82 92 100
0.919076 -1.06737 7.40282 31 24 0
0.773734 -0.599442 7.66084 116 130 195
1.36993 0.244443 6.70875 224 234 239
-0.316164 0.547655 6.50231 5 13 34
-1.11519 -0.401966 7.33748 4 8 4
-0.362469 0.500217 6.45343 52 68 100
-0.519668 1.26943 4.92755 218 218 216
-0.904981 -0.45717 7.45422 1 6 2
-0.442518 1.25449 4.95207 218 219 217
-0.527568 1.16359 5.10625 234 237 234
0.800136 -0.509622 7.70169 185 198 252
-0.0803553 0.454107 6.49381 0 2 46
0.558736 -0.560682 7.84464 150 162 236
-0.109179 0.216757 6.58453 18 36 64
-0.509366 1.23213 4.98479 92 92 90
-0.17261 0.24012 6.54153 20 40 66
1.44676 0.870922 6.16345 70 62 30
-0.732518 -0.771369 7.41177 14 11 10
-0.86581 -0.804244 7.29951 190 188 177
-0.597835 1.17926 5.08396 58 57 55
0.375591 1.07178 5.48468 218 218 208
-0.77695 -0.852689 7.3354 65 62 52
0.674651 -0.815765 7.58167 2 12 71
0.740604 -0.782567 7.57129 67 86 132
0.70446 -0.805303 7.57607 199 213 248
1.42407 0.883622 6.13045 46 40 18
-0.413374 0.254146 6.49535 214 232 239
0.921742 -0.766865 7.56658 32 38 85
-0.646947 1.17736 5.09126 240 242 241
0.972492 0.431153 6.74964 195 241 254
0.79834 -0.751052 7.57546 130 142 214
0.815252 -0.748087 7.56977 205 220 254
0.995745 0.523898 6.7895 198 211 220
0.863209 -0.0739626 7.93625 142 150 210
-0.347939 0.250633 6.50601 204 224 234
-0.477182 1.19141 5.0587 210 214 210
-0.289663 0.589287 6.53917 1 70 122
0.749778 -0.120143 7.92901 87 98 178
-0.93686 -0.293698 7.51778 148 162 152
0.928268 0.397286 6.7095 195 236 252
-0.406122 0.515371 6.45474 125 140 168
-0.458952 0.508637 6.43409 81 97 124
0.961388 0.387 6.7086 8 66 106
0.83117 0.539986 6.80608 156 184 210
-0.618805 1.16499 5.10591 23 22 22
0.749468 -0.601119 7.66775 165 178 232
0.800851 -0.593392 7.65998 181 200 242
0.953063 0.457065 6.76738 10 60 98
-0.594636 -1.02367 7.39037 134 152 134
1.46693 0.853776 6.17666 190 182 131
-1.01849 -0.656591 7.26135 30 28 26
-1.05998 -0.642089 7.24441 34 34 28
0.733413 0.457813 6.70848 8 42 78
0.809662 -0.508279 7.70373 12 21 104
0.789089 -0.509604 7.70339 5 10 88
0.938069 -0.485781 7.7312 142 151 202
0.832101 -0.480096 7.71237 57 77 130
0.889756 0.467399 6.75629 120 170 205
1.2365 0.895598 6.20852 88 91 92
0.838212 -0.473468 7.71683 158 166 232
0.827199 0.531728 6.7878 144 160 174
-0.433963 0.596181 6.50654 83 138 173
-0.721319 0.637659 6.45299 4 82 130
1.45872 0.838392 6.18901 252 247 198
-0.063573 0.664828 6.6649 21 43 60
-0.0724311 0.664967 6.64999 84 97 108
0.556877 -0.378242 7.93596 217 216 123
1.37772 0.58089 6.97392 76 80 84
0.801279 0.212198 6.66772 116 134 137
1.37348 0.979798 6.13997 64 71 42
0.85085 0.372168 6.67414 161 216 238
-0.116757 0.6722 6.65264 36 52 66
0.968808 -0.787256 7.57219 156 160 199
0.738571 0.215647 6.62845 110 124 131
-0.844033 -0.3288 7.57587 2 10 4
0.786842 -0.116255 7.92232 166 178 240
-0.978172 -0.433744 7.4118 0 6 0
-0.392149 1.24467 4.96505 208 208 204
-0.639042 0.564759 6.42673 228 249 254
0.722327 -0.0856332 7.94867 190 200 255
0.556704 -0.561709 7.84116 190 203 248
-0.452026 1.2078 5.03383 240 242 238
-0.806942 1.06057 5.31717 204 207 204
0.560703 -0.588377 7.83559 201 210 255
-0.602736 1.17685 5.0861 249 251 248
-0.525151 1.25149 4.9549 222 223 222
-0.113227 0.25929 7.27161 119 142 158
-0.72129 1.14581 5.15579 235 238 239
-1.05442 -0.784166 7.17048 12 8 6
-0.452458 1.26931 4.92423 221 221 218
-0.508678 1.26543 4.93219 22 21 21
-0.544511 1.1488 5.1309 164 164 161
-0.707093 1.08174 5.26652 249 249 248
-0.701047 -0.880598 7.37675 118 114 98
0.799089 -0.752754 7.57149 193 208 255
0.742575 0.411728 6.67572 198 243 255
-0.543163 1.15714 5.11908 43 36 34
-0.898315 -0.817078 7.2671 37 35 31
-0.808979 -0.473917 7.50628 154 166 154
0.891091 0.467776 6.75037 183 225 250
-0.866106 -0.803294 7.29993 169 167 157
0.829539 -0.690319 7.60391 190 202 255
-0.223584 0.230871 6.5559 102 125 146
0.824909 -0.0727162 7.93473 170 182 236
-0.203135 0.238668 6.53566 244 255 255
-0.201346 0.227444 6.56274 226 249 255
0.822301 -0.661548 7.60969 40 54 108
0.574165 -0.906507 7.64183 182 187 255
-0.910114 -0.447406 7.45008 167 182 170
0.732097 -0.312601 7.82736 180 196 254
-0.786708 -0.747288 7.3868 184 184 176
-0.950701 -0.460982 7.45898 93 106 96
-0.603698 1.12663 5.17763 248 250 244
-0.0864379 0.448214 6.48724 249 239 244
0.787302 -0.605024 7.66118 76 83 170
-0.0845585 0.492555 6.51609 154 175 208
-0.766757 1.10645 5.22273 227 228 227
-0.475083 0.617402 6.50803 2 75 122
-0.0657326 0.960472 5.4987 226 244 254
-1.05749 -0.641806 7.23968 36 33 28
-0.222553 0.527444 6.51115 128 148 173
0.863969 -1.15604 7.34945 82 68 4
0.807564 -0.115092 7.91785 70 78 154
0.797779 -0.688552 7.60313 7 10 92
-1.2161 -0.795032 7.05036 218 208 191
-0.547567 0.529414 6.42487 196 245 253
1.24642 0.884707 6.21095 202 212 212
0.795896 -0.60092 7.65098 7 10 90
0.866358 -0.60018 7.65516 94 97 174
1.27407 0.843027 6.21266 62 80 56
0.997435 -1.03814 7.4422 4 2 1
-0.6969 0.62709 6.46461 167 238 250
0.902286 0.529112 6.80261 106 118 134
0.98047 -0.779854 7.58156 7 12 42
0.679172 -0.825035 7.59049 172 187 238
0.736604 -0.790567 7.57119 220 234 255
-0.0638766 0.211092 6.58573 13 30 58
0.774732 -0.0752197 7.92647 176 191 244
-0.599095 1.12675 5.1741 203 204 202
-0.126742 0.486187 6.50533 0 6 60
-0.0536932 0.232106 6.56167 56 79 100
-0.524769 1.25311 4.95677 230 232 231
0.866143 0.448881 6.73623 2 38 76
-0.451095 1.27171 4.92026 247 249 244
1.23628 0.911152 6.21295 222 227 226
-0.461438 1.1977 5.04107 206 206 200
0.786417 -0.116183 7.91732 170 180 242
-0.22437 0.503148 6.4902 224 246 255
-0.703914 -0.84536 7.39302 4 0 1
0.773313 -1.0768 7.40081 208 192 140
-0.257833 0.212117 6.55685 124 144 168
-0.468099 0.251058 6.50309 230 248 252
-0.0798033 0.46831 6.49318 146 160 184
-0.269764 0.509022 6.48042 216 234 250
-1.1109 -0.396032 7.33413 124 142 130
1.27748 0.834175 6.21761 196 186 141
-1.14964 -0.864615 7.05663 162 178 161
-0.38386 0.551238 6.4602 0 4 54
1.43663 0.89382 6.11849 72 30 12
0.866031 -0.597896 7.65171 172 178 241
-0.369306 0.587672 6.48865 22 93 138
-0.642908 -0.878542 7.4164 136 132 122
-0.629953 -0.910923 7.41919 80 77 66
-1.01729 -0.657456 7.26225 12 10 9
1.29404 0.822736 6.25081 166 166 128
0.789836 -0.510296 7.70996 0 4 84
0.819895 -0.690089 7.60436 10 13 90
0.670981 -0.350139 7.83829 0 6 114
0.864556 -1.15564 7.34823 82 68 4
0.830262 -0.769369 7.56088 174 186 234
-0.412141 0.592579 6.4539 2 84 136
0.880419 0.537 6.81123 19 34 52
-0.396129 0.688321 6.58861 72 88 104
-0.395132 0.519378 6.46273 220 239 250
-0.36642 0.502404 6.45502 0 4 40
-0.182192 0.504276 6.50367 10 20 62
-0.0682605 0.237931 6.57223 224 240 244
-0.477175 0.266932 6.47925 10 30 64
-0.0504762 0.476814 6.5266 2 7 38
0.946186 -0.768968 7.57357 166 174 208
0.756734 0.476775 6.72879 194 225 242
0.733773 0.46062 6.71238 68 116 150
0.834889 0.535045 6.80625 69 86 103
0.736279 0.449912 6.70286 208 242 254
0.592762 -0.882865 7.64145 184 196 252
-0.793617 1.09039 5.25812 49 48 48
-0.691303 0.577923 6.41436 4 13 70
-0.644735 -0.878013 7.42612 134 133 120
0.802343 -0.772705 7.56105 202 214 254
0.817291 -0.770565 7.56746 2 5 64
0.760711 -0.772476 7.56743 2 6 59
-0.522176 0.616454 6.49078 210 241 252
-0.509436 0.618761 6.50159 4 96 150
0.777845 -0.767058 7.57075 218 230 255
0.766189 -0.761448 7.57648 186 196 243
0.736546 -0.0842734 7.93346 175 193 250
0.764029 0.388443 6.66114 0 50 95
0.871384 0.381222 6.68836 6 78 131
-1.05361 -0.783289 7.16961 36 32 28
0.963909 0.378458 6.70156 2 69 115
-1.02434 -0.766248 7.20469 166 162 152
-0.776644 -0.726595 7.40061 2 2 0
-0.043229 0.229703 6.57163 48 76 119
-0.0514158 0.229727 6.56835 11 34 71
-0.610634 -0.692306 7.56666 46 42 23
-0.274405 0.516069 6.48637 190 206 218
-1.01792 -0.659375 7.26552 18 17 14
-0.718815 1.1457 5.15221 246 250 250
-0.31046 0.592366 6.53333 0 86 140
0.850663 0.550356 6.80269 194 210 224
0.874688 -0.472354 7.70488 164 177 219
0.923912 0.532959 6.8309 40 61 79
-0.831697 1.07393 5.2949 32 30 31
-0.628917 0.572321 6.43136 0 12 76
-0.510335 0.559814 6.44932 6 24 72
-0.291974 0.487032 6.40625 2 13 56
-0.149793 0.495675 6.47917 214 232 242
0.735654 0.464716 6.70295 2 42 94
-0.491953 0.262 6.48087 26 72 118
-0.557606 0.250203 6.49561 223 240 243
-0.22071 0.243399 6.53911 70 98 126
-0.150922 0.221558 6.56979 16 40 76
-0.0922236 0.208415 6.59244 18 43 76
-1.16307 -0.882955 7.04082 202 200 181
-0.700897 -0.879006 7.37535 4 2 0
-0.931888 -0.807123 7.23569 20 20 16
-0.724708 1.11966 5.19257 233 236 234
-0.872075 -0.771107 7.30896 176 174 163
-0.737207 -0.766725 7.40423 2 1 0
-1.02721 -0.764299 7.19792 194 192 182
-0.688131 1.12837 5.17024 249 252 248
-0.595841 1.1439 5.14527 247 248 248
-0.45546 1.20409 5.02897 243 246 242
0.736663 -0.329015 7.83074 192 208 253
0.73278 -0.332715 7.87064 188 204 255
-0.818862 -0.718175 7.37329 12 12 10
-0.529766 1.18366 5.06955 250 252 248
-0.678512 0.568963 6.41692 180 200 224
-0.175004 0.218798 6.74114 28 53 84
1.24672 0.876985 6.20078 232 240 240
-1.11158 -0.661031 7.1983 186 182 178
0.916749 0.358526 6.67329 203 241 252
0.816721 0.473729 6.74464 174 220 249
0.852013 0.472663 6.74892 208 238 254
1.376 0.875866 6.14481 232 231 183
1.41815 0.865818 6.17245 206 204 156
-0.61379 0.482627 6.37407 16 89 144
-0.72327 0.620132 6.45004 22 114 164
-0.134712 1.4341 5.16035 190 166 127
0.996926 -1.26001 7.33218 124 108 16
0.339958 0.323941 6.51081 150 30 38
-0.72475 0.635719 6.45039 0 87 138
-0.313195 0.487296 6.44394 226 246 254
-0.193443 0.516128 6.51308 207 228 240
-0.268985 0.535372 6.48878 14 26 62
-0.397745 0.523355 6.46231 194 210 220
-0.41033 0.531367 6.45823 208 224 237
1.25626 0.857403 6.20206 249 254 246
0.663991 -0.609797 7.70406 236 231 34
-0.739278 -0.740396 7.4213 6 6 4
0.727762 -0.702267 7.61969 229 240 255
-0.810224 1.05878 5.31028 246 250 246
-0.719905 -0.824097 7.39383 189 188 173
-0.0738241 0.501043 6.53255 188 205 215
-0.323032 0.464714 6.43787 154 182 218
-0.558619 -0.974425 7.44248 198 193 171
-0.534786 -0.998174 7.45272 197 188 170
-0.673901 0.565248 6.41365 157 184 212
-1.0142 -0.789872 7.19854 61 58 53
-0.949969 -0.780876 7.25437 184 180 169
-1.12692 -0.772836 7.12625 8 6 4
-0.313377 1.25341 4.96937 244 220 42
1.25946 0.763408 6.31791 9 6 5
-0.226191 0.236831 6.49572 133 152 174
-1.12981 -0.619682 7.20927 6 4 5
0.91635 0.396099 6.7071 194 216 228
1.45877 0.857614 6.14593 74 60 46
-1.20261 -0.563021 7.18668 202 210 200
0.895693 -1.15544 7.35207 10 5 24
1.23225 0.891095 6.2102 31 34 34
0.97491 -0.793798 7.56386 8 8 43
0.824709 0.373491 6.66735 212 240 252
-0.7164 1.00928 5.41248 240 219 80
-0.379795 0.503262 6.44326 0 2 40
-0.795731 1.07569 5.27399 32 32 30
-0.795113 -0.74159 7.38186 188 184 174
-0.856315 -0.822392 7.28095 9 9 8
-0.720079 -0.845616 7.38623 168 164 153
-0.702802 -0.853701 7.39409 17 17 14
1.26937 0.845268 6.2039 64 101 82
-0.240534 0.521383 6.50002 180 202 225
1.25601 0.858157 6.204 250 253 248
-0.387254 0.548628 6.48173 8 24 72
-0.143786 0.518231 6.52707 3 23 68
-0.42062 0.245373 6.54113 42 66 115
-0.345145 0.488555 6.44753 93 104 138
-0.526416 0.566476 6.43175 192 210 226
-0.664579 1.07069 5.27587 210 210 207
-0.731796 -0.876665 7.40138 208 202 186
-0.763769 1.10662 5.21504 242 246 244
-1.05581 -0.650734 7.24891 2 2 0
0.700733 -0.61775 7.6728 224 236 255
-0.0939979 0.196443 6.57802 255 240 242
0.873212 -0.696176 7.6154 5 6 77
-0.311269 0.542112 6.50089 8 20 60
-1.16873 -0.885299 7.03555 196 196 176
-0.531043 0.263032 6.50954 24 67 118
-1.09669 -0.677665 7.20445 30 29 25
0.578351 -0.577231 7.8312 2 3 101
-0.450578 0.249907 6.58141 20 122 184
-0.215745 0.244487 6.52731 18 45 78
-0.444255 0.267424 6.46298 236 250 252
0.75959 -0.759618 7.57585 189 204 253
-0.149602 0.221487 6.55748 18 44 80
0.711278 0.384064 6.65091 62 146 189
-0.616883 0.484816 6.37312 8 88 144
-0.239321 0.203175 6.49747 66 94 128
0.816733 0.406498 6.69955 210 236 246
-0.126814 0.507629 6.51755 4 11 44
0.702888 -0.8005 7.58291 61 77 136
0.749945 -0.0808693 7.94034 170 185 250
-0.33088 0.594231 6.53347 170 238 249
0.866396 -0.573579 7.66616 173 185 244
0.801127 -0.774332 7.56483 187 197 244
1.40661 0.885456 6.1316 44 40 18
0.767466 -0.575725 7.6718 12 24 103
0.814781 -0.594215 7.65032 194 212 254
-0.154779 0.528142 6.52377 88 113 145
0.89365 -0.572176 7.66718 180 186 237
-1.0168 -0.275568 7.47055 7 22 10
0.618168 -0.549927 7.7809 177 202 255
0.906595 0.37351 6.6891 16 64 104
0.951633 0.535714 6.81388 172 194 216
0.902243 -1.15734 7.35221 43 32 6
0.885357 -0.472454 7.71296 126 139 192
-0.391952 0.686861 6.5908 48 64 83
0.738898 -0.612356 7.66562 154 170 250
0.867811 -0.77 7.56491 184 188 242
0.84945 -0.406001 7.75408 178 191 242
0.711728 -0.616604 7.67452 192 212 255
-0.454866 1.20167 5.03105 146 144 142
0.793455 -0.301187 7.81143 4 17 86
0.76781 -0.303548 7.81151 12 24 104
0.739297 -0.306068 7.82182 12 20 106
0.747195 -0.309557 7.81969 176 195 252
0.734529 -0.581824 7.67778 166 184 251
1.40458 0.89326 6.12521 74 62 34
0.93714 0.53771 6.82407 184 203 220
-0.0739288 0.528492 6.55177 6 20 46
-0.303604 0.479054 6.45277 10 18 60
-0.200769 0.49042 6.48831 44 58 91
-0.0685913 0.492915 6.52699 222 245 254
-0.1957 0.224058 6.46758 8 23 60
-1.12947 -0.774988 7.12621 18 17 11
0.77375 -0.672052 7.62107 110 124 183
-0.33283 0.247717 6.51414 239 254 255
-0.398752 0.253662 6.50316 199 220 239
0.677965 -0.806643 7.5881 14 22 97
0.804337 -0.798955 7.73204 142 155 213
-0.938325 -0.274374 7.51473 96 110 99
-0.944738 -0.785112 7.25577 150 148 139
0.777693 -0.690431 7.69333 148 165 200
0.823428 -0.115701 7.91529 94 102 175
0.911591 -0.664123 7.6176 166 174 218
-0.897862 -0.286561 7.55327 112 127 114
0.754347 0.482043 6.73315 181 225 250
0.779125 -0.600271 7.65875 34 46 129
0.845775 -0.591082 7.65548 158 171 232
0.774794 -0.580485 7.66904 200 218 254
-0.483479 0.297381 6.42047 8 100 142
-0.386771 1.24795 4.96133 72 74 68
0.90968 -0.504083 7.70875 150 163 216
0.75307 -0.420836 7.76306 114 128 202
0.688377 -0.338855 7.83014 180 200 252
0.901627 -1.15795 7.35269 34 26 8
0.814278 -0.59484 7.65392 178 197 240
-0.328324 0.682693 6.55034 110 125 143
0.729218 -0.674175 7.63109 167 184 244
0.77137 -0.756064 7.57233 175 188 238
1.38758 0.23801 6.71584 113 124 134
0.556707 -0.37987 7.93508 234 236 97
0.760392 -0.117519 7.91771 87 96 161
0.696348 -0.622711 7.6881 172 180 240
-0.634048 1.1592 5.11956 246 250 246
-0.518846 1.27006 4.92802 230 230 228
-0.480014 0.563565 6.46829 210 235 254
-0.806555 -0.843841 7.31951 105 101 89
0.911329 -0.685251 7.61345 148 154 209
-0.867389 -0.469329 7.56131 120 132 120
0.608673 -0.375555 7.87885 157 178 254
-0.738722 -0.501453 7.56372 168 182 168
-0.379455 1.25304 4.94689 211 213 208
0.866921 -0.574802 7.66659 176 190 248
0.739425 -0.428519 7.76671 168 183 242
-0.546014 0.604652 6.47481 5 82 134
-0.0637165 0.743212 7.7849 10 52 82
0.840622 -0.411485 7.743 128 139 207
0.91364 0.546149 6.82102 3 14 31
0.62597 -1.08843 7.55326 42 39 32
-0.535185 1.1538 5.12304 205 204 202
0.986201 0.526139 6.82607 12 24 38
0.737478 -0.611847 7.66622 150 166 242
0.987717 -1.06735 7.42549 185 168 62
0.978882 -1.1228 7.39404 185 168 96
0.808655 -0.296276 7.76399 10 26 84
0.76712 -0.784701 7.56657 120 132 198
-0.752085 1.0691 5.29655 254 254 254
0.868797 0.460233 6.74611 200 227 241
0.559069 -0.565477 7.84942 207 219 255
0.776652 -0.103676 7.91597 0 1 40
0.920082 -1.06647 7.40119 18 14 6
0.795288 -0.0743312 7.93134 0 4 68
0.655018 -0.620032 7.70394 224 220 138
0.842392 -0.575331 7.66371 198 212 248
-0.606091 -0.671469 7.57556 202 198 178
-0.875578 -0.459364 7.46672 176 188 176
0.767022 -0.585887 7.66158 110 130 178
-0.98535 -0.430832 7.41334 170 187 174
0.899336 -1.11522 7.37496 14 8 50
1.24411 0.879181 6.20047 220 229 230
0.875824 0.377438 6.63935 3 58 106
-0.1006 1.23423 5.1154 186 178 168
0.724753 -1.46187 7.42975 162 166 224
0.780125 -1.20813 7.33568 240 225 100
0.89736 -1.1159 7.36806 20 15 70
-0.473029 1.25775 4.94805 250 252 246
0.956825 0.445115 6.76026 7 78 124
0.855709 -0.694781 7.68027 190 203 250
-0.717092 1.10985 5.20931 248 250 246
-0.491903 0.55801 6.45757 2 16 68
-0.0606325 0.222171 6.57373 244 254 254
-0.0720618 0.222226 6.5648 240 250 252
1.41459 0.887395 6.13848 32 26 5
-0.114853 1.23805 5.12547 83 96 100
0.776002 -0.0933192 7.92616 0 2 60
0.784655 -0.116995 7.92998 174 188 246
0.685588 -0.339778 7.84049 183 206 252
0.772984 -1.49135 7.37362 58 70 106
-0.745494 -0.514267 7.53993 164 176 164
0.770619 -0.416571 7.74581 154 171 236
0.808876 -0.526708 7.90525 44 54 129
0.819422 0.475663 6.74565 210 239 254
0.648858 0.503132 6.71688 107 174 116
-0.216481 0.531475 6.51405 7 18 56
-0.271646 0.481784 6.4938 26 52 97
-0.346213 0.243448 6.51285 206 221 224
-0.177562 0.225977 6.56376 38 65 104
-0.0701658 0.225771 6.5758 228 238 243
-0.659884 1.07272 5.27858 248 250 246
-0.562507 1.21663 5.01843 21 19 19
-0.592089 1.2017 5.02922 252 254 252
0.768001 -0.763595 7.60144 178 194 244
-0.585391 1.20251 5.04153 248 250 247
0.708689 -0.323522 7.82328 200 214 255
-0.609125 1.17355 5.09014 110 110 106
-0.760137 -0.511132 7.53473 2 7 4
0.717076 -1.50306 7.37535 67 70 132
-0.179831 0.49955 6.49383 0 10 48
-0.489584 1.28553 4.8983 250 252 247
-0.426046 0.553429 6.47187 3 22 76
0.891907 -1.11939 7.3671 26 23 86
-0.719922 1.11225 5.20915 246 249 246
-0.304231 0.460861 6.40036 211 236 255
-0.0326406 0.230106 6.56348 240 248 248
-0.110602 0.216499 6.55237 128 148 163
-0.498454 0.515446 6.42734 14 32 83
-0.951902 -0.703848 7.2912 188 187 174
0.409735 0.345003 6.54609 0 7 48
1.24792 0.872368 6.203 247 252 250
0.770544 0.374967 6.64757 186 232 248
0.706443 -0.428275 7.7011 84 88 170
1.23413 0.902188 6.20064 242 246 244
-0.134793 0.551515 6.53709 6 22 80
-0.27067 0.466488 6.44113 8 40 98
-0.110899 0.234119 6.54378 117 140 168
-0.664997 0.562484 6.38018 134 155 186
0.109252 1.13667 5.28253 156 197 218
0.937026 -0.771535 7.63669 136 140 180
0.920614 -0.109621 7.9691 40 44 98
0.950411 0.463661 6.7534 194 222 237
-1.48269 -0.612772 9.12357 197 218 206
-0.855555 -0.478747 7.47763 152 164 153
-0.807886 -0.843462 7.32215 13 10 8
1.36552 0.890927 6.1333 40 60 20
1.34746 0.929324 6.13227 246 251 232
-0.455512 0.506257 6.43427 32 42 78
0.729276 -1.50044 7.38318 235 244 254
1.31545 0.937341 6.15479 34 56 30
-0.59403 0.701113 6.54573 84 97 106
0.820793 -0.322449 7.79954 2 6 70
-1.05564 -0.786874 7.16958 103 100 84
0.761053 -1.4875 7.3976 207 218 242
0.831196 -0.662732 7.61781 190 206 248
-1.09731 -0.751952 7.15977 200 200 191
0.814362 -0.577569 7.66333 199 217 252
0.715234 0.49823 6.73462 194 232 253
0.942235 0.530875 6.82152 32 48 64
-0.19173 0.527534 6.51835 12 19 44
0.8167 -0.104221 7.91486 0 2 48
0.753153 -0.0956977 7.92992 24 30 86
0.816428 -0.0830352 7.93459 5 9 48
0.69456 -0.592032 7.69311 216 226 255
-0.777566 -0.852506 7.33611 13 9 8
0.740208 -0.790375 7.56838 207 220 248
-0.703192 0.619784 6.45233 1 84 133
0.71388 -0.597801 7.68904 24 62 122
0.733649 -1.49573 7.36629 240 250 252
0.762017 -1.49308 7.40224 238 248 254
0.718336 -1.44357 7.3921 200 206 241
1.33582 0.921355 6.14218 13 46 30
-0.329626 0.55007 6.78789 108 118 146
-0.815992 -0.498735 7.4975 40 52 43
0.922366 -0.388418 7.77568 166 170 220
-0.418272 1.22807 4.99101 36 35 31
0.670746 -0.830325 7.59025 3 8 72
-0.236792 0.505874 6.49315 224 243 255
0.760952 -1.49342 7.38235 244 255 255
-1.16065 -0.884649 7.0382 202 208 186
0.824256 -0.0739099 7.92069 160 174 226
0.751724 -0.600447 7.67146 215 230 255
0.812223 0.450868 6.72188 6 46 100
1.33456 0.920962 6.14304 24 58 42
0.952655 -0.660731 7.6329 144 154 192
0.846769 -0.695547 7.68262 95 103 177
0.786311 -0.688781 7.60958 176 188 235
-0.608847 0.619413 6.47189 211 250 255
-0.980358 -0.688807 7.27783 44 43 38
-0.548889 1.16324 5.10102 64 62 61
0.845006 -0.40849 7.7588 184 200 248
0.804108 -0.206894 8.18935 170 186 240
0.773442 -0.428685 7.83146 66 72 150
0.89107 -0.392274 7.76529 166 182 222
0.732344 -1.49219 7.39187 246 254 255
-0.192561 0.490606 6.49829 214 234 247
-0.168988 0.483934 6.49277 214 234 242
0.778967 0.464414 6.72098 4 68 126
-0.533368 -0.994092 7.44994 197 188 167
0.750403 -0.0903883 7.93735 0 0 57
-0.680444 1.13601 5.22629 148 148 146
-1.10143 -0.747772 7.1469 148 146 132
-0.605303 -0.673356 7.57421 200 196 176
0.863881 -0.613487 8.72191 178 190 232
1.48336 0.939498 6.05567 243 250 220
-0.977173 -0.786047 7.22451 14 14 6
1.48819 0.960414 6.04901 241 246 224
0.6973 -0.595686 7.69886 224 236 254
-0.128596 0.531575 6.54083 216 235 247
0.869364 -1.11795 7.36458 22 18 72
-0.738664 -0.805721 7.39179 19 20 17
0.841621 -0.765834 7.57884 212 229 250
-1.16674 -0.884648 7.03578 206 202 182
0.733482 -1.49875 7.40842 246 254 255
0.75397 -1.48063 7.37166 244 254 255
0.109954 1.13714 5.28024 162 200 222
-0.136901 0.486394 6.51983 42 54 96
0.897894 -0.756583 7.62209 152 160 207
0.754284 -1.38373 7.44046 51 51 142
0.915812 -0.904209 8.25531 20 28 71
-0.336888 0.663494 6.40197 56 70 85
0.817548 -0.299605 7.806 18 35 95
0.975864 -1.11945 7.38706 182 168 96
0.706412 -0.515654 7.72901 138 156 214
0.745271 -0.767838 7.57532 166 179 238
-0.804352 -0.514071 7.736 18 29 20
0.742514 -0.67635 7.62613 192 213 250
0.954316 -0.76506 7.57309 68 71 106
0.855036 -0.754563 7.56826 26 36 88
0.705096 -0.603399 7.67576 202 224 255
0.728279 -0.773367 7.58223 192 204 255
0.70545 -0.597666 7.68411 54 82 134
0.671244 -0.217841 7.93146 172 185 254
0.822877 -0.300674 7.83039 184 202 248
0.96108 -0.778915 7.57555 44 50 88
0.703287 -0.78584 7.58557 191 199 254
0.728423 -0.774675 7.5793 194 205 255
0.847344 -0.473939 7.73295 186 204 247
0.73632 -0.792185 7.57021 216 230 254
0.708515 -0.786586 7.57527 4 6 88
-0.14561 0.521221 6.68269 202 222 238
0.841525 -0.583916 7.66281 187 204 238
-0.969775 -0.676182 7.27639 3 4 2
0.776498 -1.08388 7.40008 244 228 85
-1.088 -0.77909 7.14093 34 32 26
-0.607433 1.14862 5.08281 247 248 248
0.684431 -0.427952 7.73413 122 136 196
0.790749 -0.664303 7.59979 146 164 208
0.927523 -0.66555 7.61381 118 130 166
0.898497 -0.494252 7.70313 150 168 204
0.739774 -0.492395 7.7516 212 228 255
0.719482 -0.779365 7.56634 158 166 222
0.82952 -1.04189 7.42059 28 20 92
-0.48046 0.525564 6.59366 24 40 71
0.7329 -0.770319 7.57912 183 192 241
0.789478 -0.689612 7.61107 172 184 224
0.807078 -0.661808 7.61436 158 173 220
0.804469 -0.665933 7.61459 196 216 250
0.701617 -0.784394 7.58672 206 214 255
0.795873 -0.663329 7.61975 28 34 88
0.685106 -0.795171 7.58551 232 244 255
0.696914 -0.797038 7.5842 46 62 126
0.781172 -0.668603 7.62731 220 236 255
0.838502 -0.676044 7.60315 87 110 154
0.729715 -1.4976 7.39836 244 253 255
0.967392 -0.785381 7.57489 176 180 219
0.879388 -0.668892 7.61096 74 77 142
0.847892 -0.767443 7.55806 198 210 250
0.797785 -0.601203 7.65635 18 27 94
0.891081 -0.575022 7.67188 174 181 232
0.975804 -1.11952 7.39276 167 154 110
0.776464 -0.579235 7.67112 198 218 254
0.688492 -0.610382 7.73544 201 218 152
0.848971 -0.746388 7.58597 120 132 182
-1.05511 -0.410655 7.36101 146 158 146
-0.946639 -0.44388 7.43015 11 22 12
-1.00408 -0.429017 7.39463 30 41 31
-1.09077 -0.414436 7.34516 50 60 52
-1.3934 -0.772816 7.37491 9 12 12
-0.869472 -0.724826 7.44604 68 64 56
-1.03824 -0.432238 7.45127 94 101 92
0.692577 -0.848365 7.8146 196 214 248
-1.02298 -0.42298 7.42574 177 189 174
-1.11602 -0.413936 7.35579 81 92 82
0.752042 -1.44398 7.38344 244 253 255
-0.730608 -0.512375 7.59657 160 173 158
-0.974561 -0.433258 7.37844 58 68 60
0.736235 -1.44843 7.38738 246 253 255
-0.70053 -0.882455 7.37249 60 58 51
-1.02821 -0.288001 7.46214 2 10 4
0.886124 0.464368 6.7505 150 197 230
-0.0626253 0.982065 5.49195 180 195 230
-1.03704 -0.694965 7.23007 180 177 172
0.787228 0.211542 6.63661 155 172 179
1.25716 0.248427 6.68463 234 239 240
-0.63974 -0.88284 7.42738 162 161 150
0.680396 -0.793528 7.58311 220 234 254
-1.21579 -0.795207 7.04894 234 220 208
-0.533497 -0.989789 7.4569 214 202 184
-0.710018 -0.508159 7.57372 174 186 174
0.774742 -0.11908 7.92408 124 132 208
0.895904 0.529525 6.79921 70 89 105
0.777796 -0.495908 7.70953 56 84 142
0.839765 0.532594 6.7842 103 115 134
-0.960384 -0.295975 7.50081 7 13 10
-1.00424 -0.6634 7.26783 6 6 3
-0.867111 -0.803031 7.29429 214 213 204
0.753663 0.477264 6.73147 90 140 178
-0.896027 -0.818566 7.26766 72 70 64
1.37719 0.895157 6.13343 246 250 217
-1.06743 -0.419633 7.35106 97 106 99
0.795172 -0.607067 7.72768 52 54 148
-0.73215 -0.73595 7.42393 4 5 4
1.25419 0.762229 6.32959 7 6 2
-0.658448 -0.540258 7.60565 154 168 158
-0.749378 -0.512259 7.54235 158 172 160
-0.557264 -0.979533 7.44213 214 209 192
1.44703 0.904621 6.10081 234 233 188
-0.854698 -0.824748 7.2878 3 2 1
-0.702282 -0.854368 7.38318 4 4 2
-1.14604 -0.865365 7.05243 178 192 176
-0.630519 -0.908436 7.41398 46 42 36
0.245937 0.14133 6.74499 232 228 227
1.40464 0.885225 6.11064 32 23 3
1.36212 0.889162 6.14266 90 128 95
1.37145 0.876558 6.14871 237 237 192
-1.14665 -0.863164 7.04415 217 224 210
-1.0312 -0.763835 7.21248 208 202 194
0.375142 1.0726 5.48525 226 226 216
-0.785862 -0.748197 7.38888 196 193 190
-0.592761 1.12497 5.18495 198 199 196
1.34058 0.918238 6.13897 215 242 232
0.285425 1.19771 5.44361 12 6 0
0.951103 0.538644 6.79509 112 130 144
0.759547 0.465296 6.65838 182 221 251
-0.638737 -0.878607 7.42245 194 192 178
-0.375959 0.708522 6.68108 66 86 104
0.216437 1.27668 5.4319 132 122 108
-0.806438 1.07996 5.27928 23 23 24
-0.805971 1.08194 5.27363 187 186 186
-0.462564 1.25017 4.82492 232 232 230
0.888221 0.530698 6.78835 192 206 220
0.930463 -1.16275 7.77681 210 194 116
-0.89813 -0.693974 7.32444 34 32 27
-0.554274 1.21275 5.02245 44 40 40
-1.1497 -0.866572 7.05483 161 178 162
-0.288346 0.67877 6.60514 112 128 148
-1.10376 -0.707842 7.30905 164 162 155
-0.094033 0.535155 6.53561 157 184 208
0.81998 0.38076 6.67032 12 59 93
-0.875557 -0.285872 7.60533 10 14 10
-0.235569 0.680168 6.62782 132 146 160
-0.755054 1.08995 5.25913 171 170 169
1.26848 0.853498 6.21246 51 96 74
1.23901 0.895018 6.20013 241 250 248
0.900652 0.536968 6.8354 112 124 138
0.61936 -0.876297 7.60823 70 91 154
1.27809 0.253711 6.67703 8 28 49
-0.826848 -0.475688 7.50278 18 26 18
0.981939 0.523129 6.79651 146 162 178
-0.431469 1.23142 4.98907 249 253 249
-0.224812 1.25341 5.02549 6 6 4
0.84338 0.472757 6.74264 193 234 255
-0.891119 -0.474188 7.44455 68 80 72
0.955245 0.442877 6.75516 0 59 104
0.985628 -0.795988 7.57901 102 106 142
-0.204094 0.511027 6.5011 1 14 60
-0.795013 1.06957 5.2993 220 221 218
-0.594844 -1.02401 7.38735 188 200 184
0.891199 0.458257 6.7277 130 171 199
-0.701976 -0.850187 7.4108 13 10 10
-0.317459 0.229322 6.53978 99 118 145
1.28505 0.244989 6.69099 58 76 90
-0.780284 -0.513543 7.64867 65 77 70
0.896815 0.46782 6.75354 204 228 243
0.798546 0.406636 6.70127 105 149 180
1.27604 0.861821 6.24026 149 181 164
0.111543 1.14033 5.28377 163 200 222
0.895909 -1.11935 7.3766 28 22 90
-0.224234 0.219381 6.5632 232 250 252
1.42607 0.889392 6.12276 245 234 193
-1.01993 -0.758645 7.01169 33 31 30
0.802597 -0.398111 7.7582 164 182 235
-0.584169 -1.0479 7.37516 118 142 116
0.327067 0.150816 6.72826 234 234 230
-0.555898 1.23298 4.98719 245 246 246
0.997101 -1.04072 7.43751 17 13 8
0.371653 1.06572 5.49102 14 23 23
0.839036 0.453835 6.68531 107 147 182
1.33379 0.93838 6.14389 226 232 206
-0.569186 0.228583 6.53795 72 132 165
-0.0724064 0.466047 6.50465 204 218 230
0.647643 -1.29201 7.37283 112 105 68
0.81944 -0.0774808 7.95234 164 178 230
-0.574695 0.229135 6.5287 208 239 246
0.85435 0.367448 6.63807 200 240 254
0.811969 0.463173 6.70295 43 92 130
0.856048 0.452636 6.82068 174 220 240
0.685337 -0.80812 7.59029 44 58 128
0.716929 -0.594852 7.6832 25 66 134
0.764051 -1.49209 7.40233 210 222 252
0.620116 -0.548639 7.77372 157 176 246
0.906805 -0.663417 7.616 109 114 170
1.24226 0.884429 6.20214 202 218 214
0.817173 -0.684473 7.60877 202 223 255
0.705618 -0.499074 7.73786 79 94 172
0.753807 -0.510469 7.71539 204 218 255
0.808288 -0.479198 7.71284 14 23 93
0.75178 -0.682568 7.6182 45 68 124
0.860774 -0.662642 7.61421 196 209 248
0.65226 -1.28851 7.36355 78 72 33
0.734045 -0.585972 7.68026 122 146 200
0.760577 -0.579294 7.67097 188 204 255
0.675766 -0.607002 7.6953 219 220 90
0.821882 -0.597227 7.65399 3 6 82
0.825053 -0.480908 7.71716 180 199 246
0.745268 -0.694617 7.61814 144 158 224
0.794723 -0.604407 7.67456 98 109 182
0.751193 -1.45298 7.41333 234 245 254
0.869692 -0.394426 7.76237 174 186 240
1.36684 0.891111 6.1389 43 65 31
0.73386 -0.501696 7.72534 52 85 138
-0.81308 -0.499923 7.50266 74 87 77
-1.21561 -0.796636 7.04916 208 201 184
0.831431 -0.478246 7.71798 18 29 94
0.745677 -0.606765 7.66484 2 8 96
-1.55224 -0.397863 8.9048 157 186 172
1.24844 0.878473 6.21325 207 218 214
0.669473 -0.498254 7.66008 180 200 241
1.33434 0.920575 6.14355 41 81 62
0.910196 -0.771959 7.57041 199 204 238
0.77607 -0.771853 7.57136 192 210 244
0.708625 -0.720041 7.73652 220 226 194
-1.21854 -0.800022 7.05292 208 200 182
-0.384368 0.246977 6.58121 111 127 148
0.407791 0.343742 6.52399 4 14 56
1.4738 0.93851 6.04892 240 244 212
0.73243 -0.513658 7.72721 199 221 254
0.0615157 1.38104 5.59762 10 8 5
0.715751 -1.51251 7.40343 75 80 121
0.773777 -1.48701 7.37201 70 82 102
0.843052 -0.689171 7.60664 10 15 72
0.813924 -0.573683 7.6629 186 204 249
0.682065 -0.424774 7.78861 50 78 134
0.659391 -1.1057 7.63321 42 39 22
0.867488 -0.747341 7.57127 199 207 244
0.634081 -0.835244 7.49442 87 98 155
0.684561 -0.517825 7.74178 70 76 152
0.856747 -0.755833 7.56986 8 14 64
0.853437 -0.744976 7.57244 200 213 250
0.804896 -0.595065 7.65811 173 189 236
0.703068 -0.500263 7.7416 198 216 255
0.823763 -0.483271 7.71995 184 202 238
0.733893 -0.328588 7.82327 186 196 245
0.708438 -0.591488 7.6898 201 222 249
0.777118 -0.581981 7.66806 210 226 254
0.739089 -0.486805 7.73355 37 52 117
0.641508 -0.801578 7.51859 130 144 204
0.865353 0.462431 6.76197 86 117 148
0.884056 -0.750641 7.5718 201 208 244
0.899328 -0.577442 7.67021 188 197 234
0.733529 0.376951 6.64592 132 193 222
0.0788016 0.879556 5.73521 64 87 110
1.43028 0.890062 6.11663 128 83 44
1.3889 0.888423 6.13011 180 181 137
1.4415 0.866299 6.14498 44 38 2
1.38177 0.890519 6.13036 81 86 44
1.29884 0.855592 6.18675 46 68 28
1.42096 0.856565 6.16715 36 40 3
-0.217102 0.883168 5.72279 10 53 90
1.36707 0.890362 6.13122 28 53 13
0.197405 1.29558 5.41641 20 12 9
-0.687949 0.718342 6.53427 44 61 73
1.51398 0.82409 6.23854 80 67 25
-0.572183 0.701135 6.55844 196 212 228
-0.429751 1.47151 4.91564 8 0 0
-0.426989 0.684801 6.57639 28 44 57
-0.384655 0.680935 6.61848 57 76 88
1.53778 0.846902 6.18594 76 70 20
-0.496818 1.35144 4.84491 20 44 54
-0.284431 0.675115 6.61559 84 100 115
-0.173518 0.221691 6.5701 56 80 104
-0.675479 0.564302 6.41383 128 158 192
-0.564805 0.630021 6.4977 184 246 252
-0.549744 0.612855 6.4875 190 253 255
-0.0106045 0.66431 6.68759 24 43 59
-0.564995 0.605229 6.47415 26 98 134
-0.0680438 0.65469 6.65189 72 90 102
-0.525009 1.16154 5.1113 232 234 230
-0.169357 0.903632 5.67948 36 62 98
1.85224 0.99083 5.93328 34 23 6
0.25758 1.16336 5.39662 186 176 156
-0.419179 0.599986 6.51176 136 236 251
-0.63306 0.575167 6.43644 0 22 51
0.0979684 0.64331 6.68562 12 32 48
-0.983178 -0.287968 7.48903 0 5 0
-0.59565 0.565224 6.44415 36 58 80
-0.392377 0.581534 6.50528 24 80 109
-0.151604 0.907197 5.66798 22 48 88
-0.473818 0.562613 6.4692 27 42 70
-0.571337 0.55292 6.43612 189 220 234
-0.439209 0.556267 6.48001 69 86 111
-0.415501 0.542103 6.46878 193 216 240
-0.735076 1.13912 5.16531 244 244 242
1.67598 1.09467 5.91472 107 117 100
-0.269921 0.537483 6.50528 38 50 74
-0.206763 0.525512 6.51245 8 26 50
0.597688 -0.874091 7.63026 0 9 91
-0.167936 0.527311 6.52258 198 219 238
-0.61069 0.48032 6.38335 21 72 107
-0.20321 0.514397 6.5083 0 2 30
1.72223 1.10518 5.88178 223 227 201
1.72565 1.10508 5.87695 100 104 78
-0.187762 0.508695 6.5062 6 14 31
-0.0609816 1.37023 5.22299 28 18 14
1.80691 1.07712 5.82765 240 226 223
-0.290872 0.481961 6.45849 1 22 48
-0.201005 0.489801 6.48763 18 22 52
0.8368 0.583193 6.83605 12 37 54
0.649688 -0.835039 7.59867 2 20 80
0.829894 0.583418 6.83133 170 190 204
0.819925 0.578983 6.82844 189 209 222
-0.892495 -0.274801 7.55737 23 35 26
0.909708 0.571655 6.84282 180 200 214
-1.01565 -0.276614 7.46868 5 13 6
-0.807667 -0.84345 7.31894 32 30 24
0.971704 0.564104 6.85528 30 48 59
-1.03836 -0.273038 7.46073 0 6 0
-0.0225342 0.779294 5.91517 207 214 216
0.901577 0.540364 6.81681 174 192 213
0.851813 0.536817 6.80639 89 108 122
0.823633 0.533702 6.79186 64 82 98
-0.0688177 0.656725 6.65482 114 132 143
-0.0826935 0.448625 6.49712 248 229 242
-0.548908 1.23633 4.97759 41 40 40
0.759247 -0.776639 7.56792 29 40 88
-0.91587 -0.263768 7.54736 156 174 160
0.90379 -0.764575 7.57039 18 26 75
-0.15868 0.664678 6.63386 207 225 235
0.72576 0.498081 6.73666 148 196 227
-0.860705 -0.284625 7.57556 149 166 153
0.0119315 0.972403 5.54726 48 64 97
1.06988 0.513683 6.8379 54 70 80
0.753007 0.481484 6.73207 194 238 255
-0.0782598 0.98349 5.51823 22 42 86
0.856039 -0.751762 7.57188 17 36 94
0.827809 0.473521 6.7482 186 236 255
0.831958 -0.745127 7.56946 170 187 241
-1.05608 -0.784507 7.17043 6 4 1
0.712757 0.456791 6.70251 0 36 74
0.0349534 1.03106 5.44312 48 70 106
-1.13088 -0.774707 7.12679 14 12 5
0.859359 0.464317 6.7458 6 47 80
0.778272 0.209677 6.66126 36 60 66
0.875091 0.459044 6.74582 145 200 230
0.714268 0.443785 6.69324 5 55 94
0.254901 1.28468 5.46327 81 76 66
0.236955 1.27661 5.44495 193 183 165
0.947012 0.455735 6.76244 0 50 84
0.858253 0.446756 6.73141 11 59 86
-0.432018 1.22573 5.00052 66 58 56
-0.440443 1.2246 4.99991 62 58 57
0.878112 0.442851 6.77896 172 238 255
-0.304352 0.676656 6.59376 24 42 62
-0.344296 0.680149 6.59509 113 129 144
0.776983 -0.110228 7.91681 12 30 82
-0.863773 -0.738203 7.33054 210 208 196
1.50853 0.863079 6.14371 64 62 14
-0.306987 0.31869 6.42003 59 72 75
-0.984849 -0.427913 7.41165 166 182 168
-0.553523 1.21186 5.01924 53 49 48
-0.579631 0.29601 6.41351 13 87 118
0.0872515 1.21818 5.27607 8 1 0
-0.231471 0.310675 6.41786 54 64 70
-0.779456 -0.725091 7.40308 28 28 21
